East,North,Altitude,Group
93.79029894550331,56.17928697727621,3.266900000000021,2
93.72975319554098,55.935386163182564,3.2657000000000096,2
93.76502605690621,56.1964321611449,3.262200000000006,2
93.74937178788241,56.20159275643528,3.2612000000000023,2
93.57345232972878,55.336626050993786,3.2563000000000097,2
93.68198648048565,55.95195925142615,3.263600000000025,2
93.54114208114332,55.35581574495882,3.258400000000023,2
93.5909798993962,55.68504876829685,3.265100000000018,2
93.63361365965102,55.96184644009918,3.258100000000013,2
93.55737266887444,55.69419974926859,3.262200000000006,2
93.39953603153116,55.064271655865014,3.2642000000000166,2
93.52439980162308,55.70892560295761,3.262100000000004,2
93.44053089036606,55.40550899319352,3.2598000000000127,2
93.34763674985152,55.090745370835066,3.265000000000015,2
93.41187283128966,55.43368555419146,3.2595000000000027,2
93.37732040742412,55.44948298297823,3.2593999999999994,2
93.28497585665899,55.1436273176223,3.268400000000013,2
93.05577240907587,54.35957475192846,3.256400000000013,2
93.01648131292312,54.378586905077114,3.2562000000000064,2
92.9800385008566,54.407677222974606,3.260100000000022,2
92.8433900938835,53.95172062795609,3.254500000000008,2
92.94304609624668,54.427859586663544,3.261099999999999,2
92.92943620088043,54.44418965280056,3.2587000000000046,2
92.91272370831577,54.460440810769796,3.261600000000016,2
92.6400202626828,53.52519602328539,3.264800000000008,2
92.87205085693859,54.472747337073095,3.2589000000000112,2
92.71643222635612,54.06077816337347,3.2645000000000266,2
92.67412330303341,54.07637832406908,3.2626000000000204,2
92.4933758735424,53.614853167906396,3.2693000000000154,2
92.45339389611037,53.63051251042634,3.2677000000000183,2
89.51308831130156,55.74587419442833,3.366100000000017,7
89.48510842758698,55.7473860848695,3.363500000000016,7
89.47000375902279,55.76145464926958,3.367800000000017,7
89.74679335416296,56.16983495745808,3.3735000000000066,7
89.67656108445955,56.18472496792674,3.3714000000000226,7
90.13152534433176,56.8811323447153,3.372399999999999,7
90.11420675599949,56.89069761056453,3.374500000000012,7
90.10142903565428,56.90482535213232,3.378900000000016,7
90.07879393047187,56.90980841591954,3.377800000000008,7
90.22979264170864,57.1982560614124,3.3692000000000064,7
90.21023187693208,57.20442906115204,3.368500000000012,7
90.38696827343664,57.48797255847603,3.3692000000000064,7
90.55635929491837,57.7246358608827,3.3648000000000025,7
90.33745248569176,57.51228342019022,3.3719000000000108,7
90.71750073228031,57.94997188169509,3.3674000000000035,7
90.50988959078676,57.75124768447131,3.369100000000003,7
90.68452788423748,57.964697748422616,3.3676000000000097,7
90.47381414636038,57.765894644893706,3.369100000000003,7
90.82265415415169,58.17944270279258,3.37130000000002,7
90.80924206925556,58.187995574437075,3.372700000000009,7
90.80324739252684,58.21007805969565,3.375,7
90.78983530774711,58.21863092947751,3.3763000000000147,7
90.57656858232805,58.02865687105805,3.369400000000013,7
90.75539593317079,58.2299842555076,3.3743000000000047,7
90.88428646139799,58.411141900345676,3.3646999999999987,7
91.02833816118073,58.576008930802345,3.360800000000012,7
90.69177718623541,58.259495169855654,3.3748000000000222,7
90.99999095161913,58.59196418803185,3.362500000000012,7
90.82537812227385,58.43854911904782,3.3648000000000025,7
90.97319504001644,58.60795889794826,3.363900000000001,7
91.10439978411888,58.759158226661384,3.357,7
90.77959930046929,58.468513755127795,3.360300000000024,7
91.08355475217104,58.78531001228839,3.3571000000000017,7
91.2186659903964,58.93549694959074,3.359500000000025,7
90.91059071500786,58.658618811517954,3.3662000000000205,7
91.04489805479534,58.80989704653621,3.3596000000000004,7
91.18388753721956,58.96018261834979,3.3637000000000232,7
91.17277414305136,58.96990569680929,3.366000000000014,7
91.29587059025651,59.104222600348294,3.3618000000000174,7
90.98676536721176,58.83732398878783,3.3583000000000136,7
91.12578310724348,58.98649853281678,3.3606000000000047,7
90.95310164429249,58.848697042092674,3.354800000000012,7
91.09677327750248,58.99798994604498,3.3583000000000136,7
91.24636752565857,59.15855095628649,3.368900000000025,7
91.35429007431958,59.2791409753263,3.3573000000000093,7
91.06786093395205,59.03616577666253,3.3619000000000203,7
91.20552516751923,59.17752366513014,3.366300000000024,7
91.46195830695795,59.40973025467247,3.3596000000000004,7
91.3226707308786,59.3016834957525,3.360900000000015,7
91.16770063422156,59.19990836828947,3.3676000000000097,7
91.43183374765795,59.4345342842862,3.3643000000000143,7
91.29021922557148,59.326428344473236,3.3651000000000124,7
91.53460931545123,59.54387592989952,3.3572000000000064,7
91.39484137739056,59.45471665635705,3.363300000000009,7
91.248601219384,59.345381326042116,3.3613,7
91.50146693200804,59.56526796612889,3.3581000000000074,7
91.60125292884186,59.67008658871055,3.3518000000000256,7
91.37061118299609,59.491899820044644,3.367100000000022,7
91.21819409262388,59.38129564374685,3.362500000000012,7
91.47878803464118,59.602490582503385,3.3629000000000246,7
91.57860228826758,59.70619817543775,3.354900000000015,7
91.68919084919615,59.81351504009217,3.3617000000000132,7
91.33129186707085,59.512023011222475,3.3642000000000114,7
91.55878721759657,59.7223704289645,3.3579000000000008,7
91.66098492755556,59.82391514815389,3.3550000000000177,7
91.30075899872463,59.52236394025386,3.359100000000012,7
91.42042929749005,59.63880575262011,3.362500000000012,7
91.52719613257796,59.7438019188121,3.358699999999999,7
91.62864645081572,59.84421588201076,3.35420000000002,7
91.5035593325738,59.75765347760171,3.3577000000000226,7
91.6126813670853,59.86159779876471,3.3593000000000184,7
91.71346906095278,59.9575479188934,3.3585000000000207,7
91.4801047872752,59.794856367632754,3.3602000000000203,7
91.5823590110522,59.89417902845889,3.3550000000000177,7
91.69084667740393,59.99254847876728,3.3602000000000203,7
91.56334784661884,59.909259978681796,3.3564000000000083,7
91.66795726970304,60.00753079354763,3.359100000000012,7
91.76578365033492,60.09784686379136,3.3581000000000074,7
91.53098111366852,59.9306717403233,3.3563000000000045,7
91.64024442899971,60.02906091697515,3.3607000000000085,7
91.73959384975024,60.1205274714157,3.3610000000000184,7
91.61402637173887,60.052852554246776,3.3656000000000006,7
91.71340404951479,60.14320807997137,3.363800000000026,7
91.58447966503445,60.08545351121575,3.3600000000000136,7
91.69310861267151,60.178267819806926,3.3655000000000257,7
91.65919058327565,60.19964012689889,3.362500000000012,7
85.98050265875645,56.21635262016207,3.4724000000000217,4
85.71223831712268,56.266229202970855,3.474400000000003,4
86.2304344830336,56.765241621993475,3.4630000000000223,4
86.14540838694666,56.7819789275527,3.4645000000000152,4
86.03186555276625,56.821337684057646,3.4678000000000115,4
86.41381724458185,57.2757504824549,3.456200000000024,4
84.38262619357556,56.42141155619174,3.4713000000000136,5
86.85397679638119,58.21858899854124,3.472900000000009,4
86.76590463414324,58.23302533105016,3.4688000000000163,4
86.70389371807688,58.260353681631386,3.474400000000003,4
87.10290237679146,58.56289094313979,3.4594000000000165,4
86.93729080818594,58.635389620438225,3.4630000000000223,4
84.88718218472786,57.609360298141844,3.4633000000000043,5
87.24259994295427,58.96000233944507,3.4633000000000043,4
87.16520181519445,59.01250954158603,3.4706000000000183,4
87.40807895723265,59.31997001264244,3.4655000000000205,4
87.30780695588328,59.35633101221174,3.464800000000025,4
87.25939039560032,59.39845781121403,3.4690000000000225,4
85.46124385448638,58.62786767911165,3.4769000000000005,5
85.3451353223063,58.6460379967466,3.4713000000000136,5
87.6259940356249,59.63235438615086,3.4669000000000096,4
87.54028982587623,59.67575635947286,3.4706000000000183,4
87.45156779093668,59.715746344067156,3.4726,4
85.53691171633545,59.101172934286296,3.4671000000000163,5
87.76015176798683,59.97262579016388,3.4764000000000124,4
87.60936232004316,60.04216617066413,3.476300000000009,4
87.94790407223627,60.21976171713322,3.4653000000000134,4
87.8727198736742,60.27677220664918,3.467000000000013,4
88.0661842660047,60.51293593738228,3.462600000000009,4
86.03080986393616,59.88417471665889,3.463600000000014,5
88.01112594665028,60.54155284538865,3.462200000000024,4
87.93976348161232,60.600884021259844,3.4639000000000237,4
87.86945922859013,60.6491246400401,3.4697000000000173,4
88.21544940466994,60.777992754243314,3.4613000000000227,4
88.1887100220192,60.79176541883497,3.460500000000025,4
88.13899647549259,60.82385349832474,3.4622999999999986,4
88.09393682039808,60.85605993866921,3.4655000000000205,4
88.02636783185879,60.918822835199535,3.4689000000000183,4
86.49029956618324,60.61627283133566,3.4805000000000064,5
88.27872776985168,61.09756182506681,3.4685000000000064,4
87.87016159365885,61.01824262179435,3.4724000000000217,4
86.39545713132246,60.652771931141615,3.4764000000000124,5
88.20839526318014,61.14691346883774,3.4706000000000183,4
88.46767951035872,61.32805206626654,3.4745000000000066,4
86.58169637829997,60.98992086946964,3.472200000000015,5
88.36196246556938,61.39540349226445,3.4719000000000046,4
88.31839759764263,61.429871441796415,3.4739000000000138,4
88.57920767250471,61.55101449508221,3.4642000000000053,4
88.55860143783501,61.59829556103796,3.4728000000000065,4
86.74730391148478,61.31431588251144,3.466200000000015,5
88.48358678724617,61.64863986708225,3.4695000000000107,4
88.70025412819815,61.796453944407396,3.4635000000000105,4
88.64893277664669,61.8307246239856,3.4599000000000046,4
88.58590465702581,61.898049989715226,3.458800000000025,4
88.52551430417225,61.95321322046221,3.4627000000000123,4
88.8281274018809,62.01760858297348,3.4581000000000017,4
88.78921642550266,62.05219488777221,3.458800000000025,4
88.77787698921749,62.070806202478714,3.4639000000000237,4
87.1689490233548,61.88647171203047,3.4772000000000105,5
88.74562330287881,62.08777386229485,3.4579000000000235,4
87.12486282212194,61.91092068422586,3.474400000000003,5
88.68793995433953,62.1585704004392,3.4592000000000094,4
87.01412458333652,61.99259714782238,3.4694000000000083,5
88.94178468710743,62.248407397419214,3.4539000000000044,4
88.8778961506905,62.31904611922801,3.4610000000000127,4
88.82798481674398,62.35891139600426,3.457300000000004,4
87.25921831547748,62.243414878845215,3.481700000000018,5
88.7851235572016,62.42674965504557,3.4631000000000256,4
87.14454532647505,62.327214764431105,3.472500000000025,5
89.0672744839685,62.47172491718084,3.4542000000000144,4
89.03531608753838,62.507599792443216,3.4566000000000088,4
88.97642051952425,62.56502452958375,3.4563000000000272,4
87.46622049086727,62.496599102392786,3.4814000000000083,5
88.91904799267652,62.623599750921144,3.4571000000000254,4
87.3572878590785,62.56831575278193,3.4742000000000246,5
88.88669400801882,62.67502902727574,3.4568000000000154,4
87.2966714744689,62.63236722536386,3.4739000000000138,5
89.18708042462822,62.704903609119356,3.4605999999999995,4
89.13051180168983,62.7623875271529,3.4592000000000094,4
88.77967718581203,62.79348776675762,3.463600000000014,4
87.55124527867883,62.81560948397964,3.4674000000000262,5
89.27546483348124,62.952847631648176,3.4566000000000088,4
89.23754002689384,63.009693964384496,3.463600000000014,4
89.19771212339401,63.04981568455696,3.4605999999999995,4
87.7031043570023,63.10074371378869,3.4679000000000144,5
89.16018290864305,63.09110761526972,3.4598000000000013,4
89.1367001326289,63.12942154239863,3.465700000000026,4
89.40802020626144,63.17300961446017,3.463600000000014,4
89.3638619570993,63.23080915957689,3.4651000000000067,4
87.91156028187834,63.32728299126029,3.4690000000000225,5
89.28289362974466,63.33214241825043,3.465600000000024,4
89.49966400885023,63.38434887491167,3.451100000000025,4
89.48124343412928,63.4372442625463,3.4543000000000177,4
89.44994766195305,63.47758297715336,3.4534000000000162,4
88.05325113434809,63.61549386940897,3.4702000000000046,5
89.42023144301494,63.516850115731366,3.4535000000000204,4
89.40805984591135,63.53766375873239,3.455900000000013,4
87.95323070441374,63.70300163235515,3.4608000000000065,5
89.37906276271679,63.579172682017095,3.4563000000000272,4
87.89278386114167,63.760386927053325,3.4571000000000254,5
89.63095063250513,63.59336112160236,3.4527000000000214,4
89.58746772725134,63.68564200960101,3.4558000000000098,4
88.18954069190659,63.902455635368824,3.4692000000000007,5
89.54471949324943,63.74903614912182,3.4563000000000272,4
88.11370663833804,63.985019782558076,3.46720000000002,5
89.50039170717353,63.81350186560303,3.4564000000000017,4
88.03382480842994,64.0741514666006,3.4652000000000096,5
89.73055860295428,63.88828398939222,3.45780000000002,4
88.31449080468155,64.2080287206918,3.468600000000009,5
88.20506230485626,64.32976137567312,3.4613000000000227,5
89.86913686327169,64.08525246754289,3.4554000000000262,4
89.85145095875488,64.10926110763104,3.452100000000001,4
89.82823521085083,64.16759327519685,3.460100000000012,4
89.76685588585678,64.26164249889553,3.4541000000000115,4
89.7601703387918,64.28037217259407,3.4571000000000254,4
89.74719483719673,64.30227711703628,3.4569000000000187,4
89.73735018458683,64.32314993906766,3.4583000000000084,4
88.33316870895214,64.69433734193443,3.4713000000000136,5
89.98335638118442,64.3549767639488,3.463700000000017,4
89.9483363715699,64.41967920120807,3.462600000000009,4
89.9376878135372,64.44164332561195,3.4634000000000067,4
89.92388015030882,64.46575059834869,3.4621000000000213,4
89.91713808977511,64.48670232854784,3.4651000000000067,4
89.89706872846001,64.51287384517491,3.460100000000012,4
89.89506532647646,64.53061085101217,3.4652000000000096,4
89.8887033215724,64.56713671050966,3.4646000000000186,4
90.10118710063398,64.60478145536035,3.4577000000000173,4
90.08302083343729,64.64767758082597,3.4594000000000165,4
88.73857422068251,65.11154740303755,3.46720000000002,5
88.69418993918224,65.17823518253863,3.464700000000022,5
88.65570002212189,65.25730209145696,3.4612000000000203,5
90.0173083426198,64.82055066153407,3.4599000000000046,4
88.61134399892764,65.32287884224206,3.4582000000000046,5
90.2351241610013,64.83164908271283,3.4484000000000217,4
90.2109349668026,64.89773872308433,3.451100000000025,4
88.92509856505785,65.37644009944053,3.4706000000000183,5
90.18351461540442,64.99932210426778,3.4528000000000247,4
88.84199831343722,65.53108301572502,3.462000000000017,5
90.1346714050742,65.11926034279168,3.451900000000024,4
90.12709718290716,65.14241440407932,3.4531000000000063,4
90.1203268656973,65.1644771611318,3.4545999999999992,4
89.09915320179424,65.70438526384532,3.4753000000000043,5
89.06616486411077,65.75023966934532,3.4682000000000244,5
89.05534677254036,65.778869968839,3.470400000000012,5
89.032724423334,65.81387053616345,3.4666,5
89.00840949616396,65.85438679344952,3.4634000000000067,5
90.33456960995682,65.28554770443588,3.4635000000000105,4
90.32380802510305,65.31195594277233,3.4615000000000014,4
90.31626205914654,65.33399897441268,3.462000000000017,4
90.296290186001,65.38685490656644,3.460100000000012,4
90.28253621410113,65.46988615579903,3.463700000000017,4
90.52926714706699,65.38166271988302,3.4492000000000185,4
90.51762960269116,65.44251284841448,3.4551000000000163,4
89.21466407994741,66.10644032526761,3.461100000000016,5
90.50871459674092,65.48786775674671,3.458800000000025,4
89.17950280441437,66.17669791076332,3.4576000000000136,5
90.48638752149418,65.54177553486079,3.453700000000026,4
90.47814785316584,65.62161178700626,3.45780000000002,4
90.45132089080288,65.69986356142908,3.4539000000000044,4
89.41770021419507,66.42400510795414,3.4696000000000136,5
89.39887133450247,66.4624373940751,3.4664000000000215,5
89.39932062488516,66.5058069685474,3.470000000000028,5
89.36854620603846,66.55616466887295,3.4616000000000042,5
89.33959011361004,66.62658006697893,3.4594000000000165,5
89.30739014782013,66.7024717014283,3.4561000000000206,5
89.56349947943819,66.91688203345984,3.4560000000000173,5
89.5225540542742,67.0314624030143,3.4518000000000204,5
89.51079077483155,67.06673914659768,3.4513000000000043,5
89.49653101328295,67.10862288065255,3.4501000000000204,5
106.82590412721035,65.69387503433973,3.0408000000000186,0
106.65137665986549,65.53712641634047,3.032400000000024,0
106.57322296046186,64.88698972947896,3.0584000000000064,0
106.49028811592144,64.82151062879711,3.0542000000000087,0
106.37810471816921,64.74639359861611,3.0555000000000234,0
106.22321977163664,64.64128499850632,3.056400000000025,0
106.19534031802324,64.60833519417794,3.048900000000004,0
105.81870923936368,63.82275565061718,3.0468000000000184,0
105.7444277126342,63.29500969778746,3.0540000000000016,0
105.52978953951971,63.18949301913381,3.0568000000000097,0
105.50946874241345,63.16451770719141,3.0476000000000174,0
105.09690253529699,62.11342829000205,3.0551000000000097,0
105.04854535183405,62.09218685794622,3.0537000000000205,0
104.74850614380556,61.590939396061,3.056000000000012,0
104.66788256959991,61.55664804205298,3.0498000000000047,0
104.71300099068321,61.186471974477165,3.0597000000000207,0
104.66840900410898,61.16977330390364,3.056000000000012,0
104.49135577608831,60.74614111613482,3.0608000000000004,0
104.32683858787641,60.34839798323811,3.070600000000013,0
104.1922430912964,60.33052181173116,3.0657000000000214,0
104.09174787579106,60.31462473515421,3.0666000000000224,0
104.06266885460354,60.29832064267247,3.0582,0
103.89821025310086,59.56260777916759,3.0700000000000216,0
103.75976475374772,59.54352194350213,3.0644000000000062,0
104.15633680915926,59.17894988041371,3.059200000000004,0
103.61470787483269,59.174067496322095,3.0638000000000147,0
103.49451057019178,59.16989853046834,3.0548,0
103.543943712255,58.81317317206413,3.0688000000000097,0
103.44463240110778,58.811758937314146,3.0679000000000087,0
103.175484318519,58.46916542761029,3.0671000000000106,0
103.21522963384632,58.09662919584662,3.0756000000000085,0
103.026872637216,58.11740854009986,3.0700000000000216,0
102.98099631466906,58.12068866938353,3.06910000000002,0
102.9037034001667,57.74184033926576,3.060600000000022,0
102.850733198924,57.74938702676445,3.0612000000000137,0
102.64653404895216,56.98931671772152,3.051400000000001,0
102.59106734138912,57.00347039476037,3.053600000000017,0
102.48090957617387,57.03179747983813,3.0578000000000145,0
102.30238660553005,56.66593885794282,3.055300000000017,0
102.01148418523373,55.896992811933146,3.0586000000000126,0
101.78719784424177,55.52997022867203,3.0684000000000253,0
101.74270325037651,55.539955996908255,3.0649000000000237,0
101.2911876902217,54.70800223667175,3.047200000000004,0
101.13808170543051,54.25829732138664,3.0586000000000126,0
100.96142654609864,53.75796481128782,3.0534000000000106,0
100.83142536075322,53.803575180470936,3.0410000000000252,0
100.69760043616408,53.29766156338154,3.060600000000022,0
100.27945495548192,52.0996799916029,3.0545000000000178,0
100.13770305365324,52.210584600456066,3.0517000000000114,0
99.79991331603378,51.637225434184074,3.050800000000009,0
99.59517663239971,50.89826479088515,3.0582,0
99.44882733537816,51.00682898983359,3.053800000000024,0
96.63149857649114,61.40894529316574,3.2557000000000187,2
96.5994709257502,61.41702468506993,3.2673000000000068,2
96.5805445262231,61.42877253517509,3.263200000000012,2
96.57765818783079,61.32864185515791,3.2567000000000235,2
96.55176075850612,61.431375694461174,3.2653000000000247,2
96.5472666071728,61.33342761732639,3.2617000000000185,2
96.52211656910367,61.43729221168906,3.272600000000012,2
96.546129369759,61.22555919270962,3.2461000000000126,2
96.51684676879086,61.33932440634817,3.266900000000021,2
96.49413670762442,61.43880406953394,3.271500000000003,2
96.52074346144218,61.247148477472365,3.2561000000000035,2
96.49390083784238,61.35652875993401,3.2708000000000084,2
96.47839767578985,61.44729774538428,3.2615000000000123,2
96.49040839599913,61.24971218127757,3.2561000000000035,2
96.4675287886057,61.355858015827856,3.2667000000000144,2
96.45038955658674,61.44992063194513,3.262500000000017,2
96.48045644594822,61.15273704007268,3.260400000000004,2
96.46317592472772,61.25235479697585,3.2551000000000267,2
96.43788459885401,61.361774535849676,3.2724000000000046,2
96.42396099236794,61.45147194433957,3.262200000000006,2
96.4508405131055,61.157542527653284,3.2623000000000104,2
96.43442041415257,61.253846927545965,3.2540000000000187,2
96.41225994064008,61.36223454866558,3.268700000000024,2
96.44191853061784,61.05058785527945,3.2563000000000097,2
96.39428854547441,61.45849949214608,3.2700000000000102,2
96.42047718947286,61.16121726110578,3.2641000000000133,2
96.41225013136864,61.271071010269225,3.2567000000000235,2
96.39089356455952,61.37836732994765,3.2699000000000065,2
96.41570045799016,61.074379472062,3.2657000000000096,2
96.3769417011645,61.469175768084824,3.2618000000000222,2
96.39830690657257,61.17844134382904,3.264800000000008,2
96.38421375397593,61.274804925546036,3.2575000000000216,2
96.4069480211474,60.96075862552971,3.254700000000014,2
96.36446500010788,61.37991864327341,3.2680000000000007,2
96.38284064189064,61.084661193192005,3.2737000000000203,2
96.36788706760856,61.18433813378215,3.2686000000000206,2
96.35786996223032,61.27302315458656,3.2506000000000204,2
96.37494862626772,60.96772699058056,3.257800000000003,2
96.33886859961784,61.37926762830465,3.2631000000000085,2
96.35566468536854,61.08508175145835,3.2696000000000254,2
96.33821461955084,61.19136568158865,3.272600000000012,2
96.35893277369905,60.865038881078355,3.2631000000000085,2
96.32902967848352,61.27784837223589,3.251800000000003,2
96.34452878613956,60.973623779602356,3.2595000000000027,2
96.31571217556484,61.374231684021645,3.2516000000000247,2
96.32610526762436,61.087665184400976,3.268700000000024,2
96.31103866337799,61.19178623892368,3.2690000000000046,2
96.33103768329602,60.86321765463799,3.2557000000000187,2
96.30766330251936,61.293981154449284,3.2515000000000214,2
96.32166762766428,60.98749504890293,3.2553000000000054,2
96.2998871956952,61.1114568002522,3.2771000000000186,2
96.28806447458919,61.21010162122548,3.2717000000000094,2
96.30654045392292,60.880382554605596,3.2543000000000006,2
96.2828794433735,61.10880073346198,3.2694000000000187,2
96.3000867025694,60.767931922338896,3.2563000000000097,2
96.26939239469357,61.211850214749575,3.2704000000000235,2
96.28637359139977,60.879869634285576,3.2508000000000266,2
96.26772401179188,61.00279926788062,3.264700000000005,2
96.25401090132073,61.11473697982729,3.272100000000023,2
96.2689194709528,60.77269795630127,3.2549000000000214,2
96.24385250895284,61.20897714141756,3.2608000000000175,2
96.25512158696074,60.887968755327165,3.2543000000000006,2
96.23891198460478,61.00651345495135,3.2641000000000133,2
96.25011185661423,60.657709621824324,3.2542000000000257,2
96.22686320275534,61.11404650937766,3.265500000000003,2
96.23528400494251,60.782959951087825,3.2609000000000217,2
96.22142960608473,60.90045280661434,3.262200000000006,2
96.21814071806149,60.663566957227886,3.2542000000000257,2
96.20391727157404,61.131250865757465,3.2652000000000214,2
96.20992635388392,60.80343820806593,3.2627000000000237,2
96.19646180875134,61.02766873314979,3.2638000000000043,2
96.20286649826448,60.684301677159965,3.258100000000013,2
96.18884255376179,60.80846070498228,3.2640000000000096,2
96.17739987478126,60.922679658047855,3.2631000000000085,2
96.18264887377156,60.56371874269097,3.254700000000014,2
96.16851189860607,60.69232188723981,3.2593999999999994,2
96.15845097089186,60.81324646715075,3.2631000000000085,2
96.15999127144457,60.44752074219286,3.2613000000000056,2
96.14781219884752,60.92637411970645,3.261000000000024,2
96.14820950035936,60.575072040781386,3.2588000000000084,2
96.13639947201591,60.70373436715454,3.265800000000013,2
96.12731199734844,60.81690147425979,3.2607000000000137,2
96.12397234258242,60.45994561165571,3.2664000000000044,2
96.11902842915151,60.92897728085518,3.257600000000025,2
96.11537794000469,60.58424273412675,3.2618000000000222,2
96.10537352866959,60.70294525846839,3.257300000000015,2
96.09958069992716,60.930706145241864,3.2549000000000214,2
96.09265806898476,60.59255886171013,3.265800000000013,2
96.09007105149792,60.72479100618512,3.2643000000000204,2
96.08496960240879,60.345555388368645,3.262500000000017,2
96.08247835934162,60.84021962620319,3.262900000000002,2
96.073539615958,60.48979184310882,3.272600000000012,2
96.05807165591978,60.73175937216729,3.265000000000015,2
96.0498393527232,60.353555871173754,3.262100000000004,2
96.05372284725307,60.84171175956726,3.25660000000002,2
96.04156847682316,60.49564917944373,3.2714,2
96.0245030174265,60.220613528974354,3.2603000000000013,2
96.02690442407038,60.736525407060974,3.263000000000005,2
96.01542823622006,60.363798139616854,3.263200000000012,2
96.0063251971733,60.508093779906645,3.2758000000000043,2
95.98762366618031,60.236351758241646,3.2666000000000115,2
95.99740152049343,60.73688678443432,3.2553000000000054,2
95.98101711994968,60.37404041085392,3.2661000000000238,2
95.97518622223288,60.511748785153024,3.272100000000023,2
95.96029947511852,60.090017888695,3.2586000000000013,2
95.95329732215029,60.243260940536864,3.2649000000000115,2
95.95499685010871,60.39005482662469,3.2608000000000175,2
95.94738859450443,60.53661197796464,3.2754000000000185,2
95.92934273567516,60.1170242279768,3.2619000000000256,2
95.93141655717042,60.401684310287244,3.2661000000000238,2
95.91060719336384,59.968685305677354,3.2592000000000216,2
95.9264460823033,60.53607933130114,3.269800000000004,2
95.90596024529076,60.120876510627575,3.259900000000016,2
95.90125678211916,60.27528977673501,3.2685000000000173,2
95.8970902141882,60.408593493513756,3.265000000000015,2
95.8722613165155,59.98105099517853,3.2609000000000217,2
95.89453145884909,60.53971461113542,3.2649000000000115,2
95.86908089381176,60.13661474082619,3.265000000000015,2
95.87439860065932,60.41579859238118,3.266300000000001,2
95.84801840409635,59.98821663763374,3.2615000000000123,2
95.84564188821241,60.14268908463418,3.2645000000000266,2
95.84357620636,60.28494021575897,3.263000000000005,2
95.81307900953108,59.8361303480342,3.258400000000023,2
95.84254049195442,60.417211814783506,3.2588000000000084,2
95.81116730952637,60.0028438391164,3.265100000000018,2
95.82166024111211,60.29216504190117,3.2643000000000204,2
95.78772135637699,59.8566086087376,3.2691000000000088,2
95.7701288072858,59.69384604226798,3.25660000000002,2
95.79439830756745,60.021317047066994,3.2633000000000147,2
95.79285395680927,60.17358716297896,3.2656000000000063,2
95.79236783110537,60.31476672086865,3.2633000000000147,2
95.75546763802411,59.8735762340948,3.2620000000000005,2
95.73172641382551,59.70843378826976,3.25830000000002,2
95.75758241838776,60.18714279308915,3.268700000000024,2
95.73341733170672,60.038665777072325,3.262900000000002,2
95.73506035003813,60.187681718729436,3.263200000000012,2
95.66168501856735,59.563236956484616,3.265500000000003,2
95.69351320876741,59.89868243876845,3.2675000000000125,2
95.66586548206396,59.73455238435418,3.262800000000027,2
95.69673578348015,60.046626806259155,3.2603000000000013,2
95.67099113948645,59.899221366271384,3.262200000000006,2
95.64081866270864,59.74280932918191,3.2634000000000185,2
95.67340980831068,60.048257035203285,3.2563000000000097,2
95.61087224492806,59.57750906329602,3.2640000000000096,2
95.64671996934341,59.90749803837389,3.263200000000012,2
95.58405667776242,59.411176678724594,3.2617000000000185,2
95.60919930483216,59.765351828187704,3.2607000000000137,2
95.57664336427116,59.61110266484321,3.2693000000000154,2
95.61435322137552,59.92890977952629,3.2593000000000245,2
95.5442442734493,59.420169828459606,3.2586000000000013,2
95.57160081842449,59.77884827367962,3.262100000000004,2
95.50738909072244,59.22134142462164,3.2498000000000222,2
95.53838225873189,59.62013526912778,3.2667000000000144,2
95.50420580874196,59.4380512079224,3.261600000000016,2
95.53414362040348,59.786789576523006,3.2585000000000264,2
95.46574281202628,59.24140540789813,3.2533000000000243,2
95.52231108676641,59.79427086282522,3.261600000000016,2
95.43903166335078,59.25406701210886,3.2559000000000253,2
95.47415739716965,59.64296023640782,3.2674000000000087,2
95.39732478011864,59.06289744563402,3.2592000000000216,2
95.43687835044693,59.46079726237804,3.2615000000000123,2
95.42944539070595,59.4783961744979,3.2606000000000117,2
95.34409619192593,58.86698784958571,3.257200000000012,2
95.36076895170844,59.09643186442553,3.2626000000000204,2
95.4035098918248,59.49107750784606,3.2638000000000043,2
95.31652462040071,58.88296281453222,3.260400000000004,2
95.33342344150878,59.10351860057562,3.2608000000000175,2
95.37733563757502,59.48262956924737,3.2506000000000204,2
95.28757129656151,58.89223215170205,3.2593999999999994,2
95.33528966398443,59.30479234550148,3.2540000000000187,2
95.23778438870796,58.68306912295521,3.2689000000000017,2
95.25770103640387,58.90703690517694,3.2613000000000056,2
95.30780286702793,59.3174342243001,3.255800000000022,2
95.20799890032505,58.69454079121351,3.268700000000024,2
95.22785903397016,58.92073062900454,3.2624000000000137,2
95.17804386687928,58.71267863083632,3.272600000000012,2
95.23622572142632,59.14106941223145,3.261000000000024,2
95.1224911864847,58.4555638190359,3.2626000000000204,2
95.1854936205782,58.93855282850564,3.262800000000027,2
95.13916109141428,58.74615386873486,3.273600000000016,2
95.08185930969195,58.4967768061906,3.2670000000000243,2
95.11078561353494,58.76322013605386,3.276900000000012,2
95.13417220814155,58.97282345499843,3.2626000000000204,2
95.001655403059,58.232364539988346,3.2596000000000065,2
95.08188880467787,58.77026741579175,3.2741000000000042,2
94.97100949182641,58.24714956898242,3.2603000000000013,2
95.05052376165985,58.7828106591478,3.2742000000000075,2
94.90105855721049,57.97632759250701,3.2656000000000063,2
94.93872751027813,58.26522822678089,3.262800000000027,2
94.97302684932949,58.5340317087248,3.262800000000027,2
94.85257271979937,57.99065888766199,3.2623000000000104,2
94.89151039812714,58.290709263645105,3.2654,2
94.81724465673322,58.0064365779981,3.2626000000000204,2
94.91779893310742,58.56931472569704,3.261400000000009,2
94.74481277971064,57.71109306160361,3.2595000000000027,2
94.84911672421732,58.3096424927935,3.2579000000000065,2
94.70965425996107,57.72020458336921,3.2563000000000097,2
94.81896388810127,58.33555753529072,3.264700000000005,2
94.80132176610641,58.32732660043986,3.2562000000000064,2
94.6077759693144,57.42300039436668,3.268200000000008,2
94.72721000644378,58.0675162775442,3.265000000000015,2
94.57172876957338,57.43653630279005,3.2667000000000144,2
94.69426540588027,58.081131094135344,3.265100000000018,2
94.53695029416124,57.46122195199132,3.2702000000000173,2
94.50242613535372,57.47590834461153,3.2699000000000065,2
94.55708731559572,57.79859357047826,3.260400000000004,2
94.52744311129207,57.804510097950704,3.25,2
94.43757959420329,57.523175953887396,3.2701000000000136,2
94.23147632926702,56.74638133402914,3.264700000000005,2
94.17118620406835,56.76708289328961,3.2613000000000056,2
94.02064548153429,56.33856661804021,3.262500000000017,2
93.83111177256797,55.88682367652655,3.27200000000002,2
94.06288775568828,56.84437430091203,3.264600000000001,2
94.03779996803496,56.823724778369076,3.2523000000000195,2
93.90827098151205,56.423536593094475,3.2672000000000025,2
93.75276835565457,55.945977242663496,3.273000000000025,2
93.7338419459993,55.95772510115057,3.2735000000000127,2
93.68923434207682,55.97215504106134,3.2708000000000084,2
90.53657811635641,57.617405021563165,3.3817000000000235,7
90.75379658699968,58.04872876033187,3.3666000000000054,7
90.39487313036808,57.63492425438017,3.3758000000000266,7
90.70985162770376,58.06762256473303,3.3693000000000097,7
90.94716770830564,58.471663767471895,3.362700000000018,7
90.92821305512916,58.48452266212553,3.3659000000000106,7
90.91080969944595,58.49742101226003,3.368900000000025,7
90.88739895028992,58.50238434318453,3.3682000000000016,7
90.84063396579586,58.510088952258215,3.3658000000000072,7
91.29479400312994,59.20758772455157,3.3721000000000174,7
91.46955513698047,59.507757233455784,3.3654000000000224,7
91.44697655364872,59.51051823515446,3.3629000000000246,7
91.43503099749796,59.522443643771105,3.367100000000022,7
91.6162106464617,59.783865242265165,3.364600000000024,7
91.6027137930505,59.79575119633228,3.3681000000000267,7
91.35443275864237,59.548187470063574,3.3658000000000072,7
91.5358794350177,59.82962730992586,3.372700000000009,7
91.70277385634836,60.072897635400295,3.3626000000000147,7
91.48309152456932,59.86052542366088,3.3707,7
91.64641852932982,60.09147579874843,3.3606000000000047,7
91.62031349993777,60.110823319293566,3.3657000000000044,7
86.98462369106709,58.54431837704033,3.4715000000000202,4
86.86637047724798,58.585780818015344,3.4777000000000267,4
87.30405289027841,59.107204132713385,3.4691000000000263,4
87.58234718337191,59.60900939349085,3.4643000000000086,4
87.45822786877397,59.63698166515678,3.4669000000000096,4
85.39547770167702,58.74181683175265,3.4731000000000165,5
87.99397690896878,60.54445194359869,3.4726,4
87.88913580030203,60.57736148685217,3.4756000000000142,4
88.21989990456495,60.908180381171405,3.463700000000017,4
88.12086840090342,60.95680213626474,3.465900000000005,4
86.10112407209817,59.927097612060614,3.4719000000000046,5
88.02599770377856,60.994412240572274,3.4708000000000254,4
88.43769905529915,61.28615493513645,3.4702000000000046,4
88.33900663105305,61.32144434098154,3.4714000000000174,4
88.24695596902167,61.37024363595992,3.4739000000000138,4
88.58700233732814,61.6412642672658,3.4664000000000215,4
88.74437290546484,61.9843495581299,3.470400000000012,4
88.66717259422876,62.02907953970135,3.477300000000014,4
88.60593735391741,62.05642759799957,3.4788000000000068,4
86.87481829267927,61.3664757516235,3.4754000000000085,5
86.70404708443674,61.39770855940878,3.466000000000008,5
88.92769445921293,62.28362496104091,3.4772000000000105,4
88.87617531546856,62.3256728379056,3.478400000000022,4
88.78659289004283,62.36897616181521,3.4800000000000177,4
89.09141426743008,62.56016689725221,3.4668000000000063,4
86.97409452334978,61.82704048324376,3.4764000000000124,5
89.03868290525861,62.5888429749757,3.4682000000000244,4
88.98434373398777,62.61970165744424,3.470400000000012,4
87.28921708709095,62.193037441931665,3.478400000000022,5
89.21118913881945,62.855602653697126,3.4646000000000186,4
87.18063904857262,62.22029322106391,3.4709000000000003,5
87.09447004529648,62.25145415775479,3.470700000000022,5
89.10722120222636,62.915216319262974,3.467000000000013,4
89.02657922869548,62.97319973353297,3.465900000000005,4
87.44856005581093,62.580642752349384,3.4771000000000067,5
89.290149928187,63.16890010237694,3.46720000000002,4
88.88436294754501,63.07186354976147,3.477800000000002,4
87.31462441035545,62.628376823849976,3.4732000000000203,5
89.18299463333095,63.23176794592291,3.467300000000024,4
89.49701352044941,63.36649350635707,3.4633000000000043,4
87.62846544501372,62.95320655871183,3.483699999999999,5
89.41508728312328,63.44445570930839,3.4684000000000026,4
89.39064659702127,63.459398576058454,3.4684000000000026,4
87.48732292186467,63.009651315398514,3.4791000000000167,5
89.34863303299063,63.49390597175807,3.4728000000000065,4
89.2826308880467,63.5255797766149,3.466700000000003,4
89.57801866601221,63.690960430540144,3.473000000000013,4
89.4831324648112,63.75969904195517,3.4750000000000227,4
89.43962411896791,63.791944924741976,3.4767000000000223,4
89.74546545767225,63.8819926287979,3.4661000000000115,4
88.0075034183683,63.583201462402926,3.4767000000000223,5
89.68984202691355,63.932830094359815,3.4719000000000046,4
87.88228218606675,63.65450384374708,3.4690000000000225,5
89.63149606063963,63.999162781983614,3.4750000000000227,4
89.88006517011671,64.11332409083843,3.4635000000000105,4
89.77151259104721,64.20061482768506,3.464400000000012,4
88.07950887898916,63.95635636057705,3.4772000000000105,5
89.70770883280785,64.26792045589535,3.463600000000014,4
87.9557259241119,64.03214230854064,3.4683,5
90.01807828736492,64.33251314610243,3.4621000000000213,4
89.56478615419473,64.39435997419059,3.4713000000000136,4
89.8713056195993,64.45774299558252,3.462800000000016,4
88.22115592216144,64.27680680342019,3.4754000000000085,5
89.81870001519566,64.51199245359749,3.4680000000000177,4
90.11108826729469,64.58168657403439,3.459600000000023,4
90.23573309043422,64.77718894835562,3.4545000000000243,4
89.91467130882666,64.76679992955178,3.4634000000000067,4
90.20610164199024,64.81312299799174,3.4589,4
90.16171734244564,64.87981076724827,3.4607000000000028,4
90.10672828112727,64.93622309993953,3.4624000000000024,4
88.56469900533556,64.86809961311519,3.4821000000000017,5
90.0524583554361,64.99487721733749,3.4652000000000096,4
88.462718975381,64.94110481347889,3.4794000000000267,5
90.31772715842816,65.06276987679303,3.469300000000004,4
88.7215226892149,65.14113091584295,3.4737000000000084,5
90.16666512819937,65.23458401579411,3.464700000000022,4
88.57761388260407,65.24531042855233,3.4653000000000134,5
90.43100427137688,65.27799459453671,3.4616000000000042,4
90.40292412007692,65.31396809685975,3.464100000000002,4
90.37990616750903,65.36452306248248,3.466000000000008,4
88.89885228336789,65.40134277567267,3.473800000000012,5
90.34473215800243,65.40476313699037,3.4666,4
88.79905791929924,65.47996229492128,3.467500000000001,5
90.29508786508814,65.46464664302766,3.4683,4
88.73559326119721,65.53393558785321,3.465900000000005,5
90.56594300572759,65.49599372781813,3.469300000000004,4
90.52411170420237,65.55385244544595,3.472900000000009,4
90.49244859698229,65.608634528704,3.4702000000000046,4
89.01607410318684,65.70560758002102,3.4708000000000254,5
90.45885414071381,65.64780302811414,3.4697000000000173,4
88.91771801223513,65.78871066495776,3.4643000000000086,5
90.42400367255324,65.70583928842098,3.4770000000000043,4
90.64820689905899,65.74044687021525,3.4576000000000136,4
89.17372990481091,65.97643656376749,3.469900000000024,5
90.57187692611478,65.87302700523287,3.4622999999999986,4
89.11569478339516,66.03054794017227,3.466500000000025,5
90.53503859508785,65.91767174005507,3.4604000000000212,4
89.04588366206734,66.08991855848578,3.458800000000025,5
90.5076210666448,65.95810908637941,3.4619000000000137,4
90.76812573650386,65.96918148361146,3.460500000000025,4
90.72148372267841,66.06360551342368,3.4632000000000005,4
89.29150129412302,66.28960932977498,3.4705000000000155,5
90.67166988993996,66.13015518803151,3.4605999999999995,4
89.19688216445502,66.3783661890775,3.4608000000000065,5
90.63124860310928,66.19360850378871,3.462800000000016,4
90.8939827225404,66.17805567011237,3.4551000000000163,4
90.89126018329986,66.19355089217424,3.460300000000018,4
90.86772089300213,66.23408687021582,3.462000000000017,4
89.48843535617925,66.51140864752233,3.470300000000009,5
90.83704394521193,66.31112898048013,3.464400000000012,4
89.41561913571788,66.5973847694695,3.4685000000000064,5
90.79188400018029,66.37779701687396,3.462600000000009,4
89.35819012578577,66.6581820435822,3.463700000000017,5
91.02151673566549,66.41254270356147,3.462200000000024,4
91.00305518461391,66.43653161171825,3.458800000000025,4
90.99091184395365,66.45623422320932,3.4589,4
90.9826467424864,66.47603547014296,3.4608000000000065,4
90.9334799872013,66.57817751727998,3.458000000000027,4
90.93150483909994,66.59480349253863,3.4640000000000266,4
89.541583545506,66.9241068828851,3.471600000000024,5
90.88855881115887,66.66597482655197,3.4621000000000213,4
91.1444816222647,66.64357828907669,3.4608000000000065,4
91.13544087274931,66.66335980966686,3.4617000000000075,4
91.08809243631548,66.78555955458432,3.4664000000000215,4
91.0621131756343,66.83048046473415,3.4646000000000186,4
91.05462372209877,66.85030143707989,3.46720000000002,4
91.2310701579554,66.99264568742365,3.4616000000000042,4
89.86645710200537,67.4560023508966,3.4609000000000094,5
91.20851702580694,67.0554416924715,3.46720000000002,4
89.82207282283346,67.52269012201577,3.458400000000012,5
91.18012605130207,67.10363650787622,3.4625000000000057,4
91.16586627834477,67.14552024006844,3.466500000000025,4
91.36891361570451,67.21850095037371,3.4539000000000044,4
91.35307428915985,67.26145625393838,3.455600000000004,4
91.33843446394894,67.28776585683228,3.452500000000015,4
89.98187040211634,67.831373013556,3.4575000000000102,5
91.30747494555544,67.37591825146228,3.4572000000000003,4
91.28358102811035,67.46091510355473,3.4561000000000206,4
91.52382131293415,67.44479021336882,3.4563000000000272,4
91.53126696392428,67.45720880199225,3.465800000000001,4
91.5178110935958,67.4980012299493,3.46720000000002,4
90.16309081460348,68.12170105148107,3.4594000000000165,5
91.48309907305521,67.61162837594748,3.4633000000000043,4
91.47871220984962,67.63152825739235,3.4653000000000134,4
90.10032694111578,68.27019068039954,3.4574000000000065,5
91.44955829856916,67.70972084626554,3.4639000000000237,4
91.4420405877754,67.73065284825861,3.4635000000000105,4
91.65434199862648,67.74494631960988,3.4488000000000056,4
91.65975598513614,67.77621293906122,3.4528000000000247,4
91.65852822596209,67.79396967310458,3.455900000000013,4
91.6310103791766,67.86886863037944,3.452300000000008,4
91.62969784927554,67.8899584496394,3.4561000000000206,4
90.27125057764351,68.59916800353676,3.4516000000000133,5
91.60367478453554,67.96711891703308,3.4536000000000238,4
91.59526839794123,67.99247530568391,3.452600000000018,4
90.56793789134828,68.71344138868153,3.465900000000005,5
90.53984221094288,68.7805434204638,3.4642000000000053,5
90.75763102760538,69.0673545319587,3.4633000000000043,5
90.73794172832277,69.10910017602146,3.459300000000013,5
90.73172100493684,69.1400708919391,3.4615000000000014,5
90.7226929734461,69.18986991327256,3.4592000000000094,5
90.7061627784278,69.22947240713985,3.4563000000000272,5
90.67542933113873,69.30873657483609,3.452600000000018,5
90.56717350904364,69.68953615333885,3.4517000000000166,5
90.91803600802086,69.65732499398291,3.4640000000000266,5
90.8957089416217,69.71123277023436,3.4575000000000102,5
91.13742407970129,70.12539162021129,3.4510000000000223,5
91.12468735012226,70.1684258338064,3.447900000000004,5
108.30411624268163,68.39299801457673,3.0477000000000203,0
108.10355598991735,68.22224621288478,3.0454000000000008,0
108.04726019827648,68.17745613120496,3.046100000000024,0
107.99470134475271,68.13831983786075,3.0477000000000203,0
107.83695562963841,67.99311551451683,3.0362000000000084,0
107.77310288278385,67.33000158704817,3.0594000000000108,0
107.69407458347268,67.26351008564235,3.0533000000000072,0
107.65619650820736,67.226970708929,3.048400000000015,0
107.50108556868507,67.130750304088,3.050800000000009,0
107.16375853447245,66.35617611464113,3.0520000000000214,0
107.10947880544701,66.3236665436998,3.0526000000000124,0
107.06597336754204,66.29476626683028,3.0509000000000133,0
107.03958434867673,65.77602069918066,3.059800000000024,0
106.99524673901031,65.74932275153697,3.0581000000000245,0
106.80132509151008,65.65322694182396,3.0555000000000234,0
107.25638509704731,65.49136906024069,3.127000000000009,0
107.23606431484222,65.46639374177903,3.1176000000000097,0
107.2305373644922,65.43957121949643,3.1021000000000067,0
107.21797306230292,65.4147931933403,3.090600000000024,0
107.20155877957586,65.38880549371243,3.0793000000000177,0
106.68835869524628,65.15117893833667,3.072900000000004,0
106.56994186190424,65.07701509911567,3.0597000000000207,0
107.07346773613243,64.44389726314694,3.120200000000011,0
107.05960647203028,64.40908052027224,3.089700000000022,0
106.36803023447284,64.56269900873303,3.058700000000016,0
106.32435522286688,64.54046491067857,3.056000000000012,0
106.2229304939974,64.50008570589125,3.0549000000000035,0
106.17761940672062,64.48114523664117,3.0539000000000267,0
106.13156093028374,64.46107401046903,3.0521999999999987,0
105.6768265760038,63.14542781747878,3.059899999999999,0
105.52093688165769,63.11033377610146,3.0605000000000184,0
105.47855881857686,63.09813839942217,3.0585000000000093,0
105.43619857577141,62.719066799618304,3.0611000000000104,0
105.37425974465441,62.71304437611253,3.064300000000003,0
105.36184629041237,61.61432210169733,3.0901000000000067,0
104.87196290364956,61.5585036277771,3.057900000000018,0
104.63346095010635,61.20112506952137,3.0688000000000097,0
104.53489706618713,61.200841573998325,3.069300000000027,0
104.50332154950593,61.191144464537494,3.0619000000000085,0
104.52020576084033,60.83247947786003,3.0656000000000176,0
104.4239405577537,60.83336619846522,3.0638000000000147,0
104.3711399352178,60.834246700629606,3.0631000000000204,0
104.32451624213718,60.83639606367797,3.0637000000000114,0
104.37733461242168,60.46863933932036,3.0663000000000125,0
104.27857290289828,60.47613304853439,3.0663000000000125,0
104.22172447911,60.48358108010143,3.0682000000000187,0
104.205356164719,60.08960613980889,3.05710000000002,0
104.15468466794118,60.09832303132862,3.0585000000000093,0
104.04957646795084,60.1112140584737,3.0590000000000264,0
103.99982191587331,60.11439553648234,3.05710000000002,0
103.96655379980804,60.110214116983116,3.051300000000026,0
103.99641354009508,59.72964421473444,3.056000000000012,0
103.9568554549478,59.72863805294037,3.0509000000000133,0
103.90698786359279,59.73626364488155,3.051000000000016,0
103.85548419738188,59.747182867489755,3.0524000000000058,0
103.80642051424364,59.75371716357768,3.051300000000026,0
103.74179238954092,59.36518521979451,3.0481000000000047,0
103.691007851623,59.37834623083472,3.0503000000000213,0
103.61055084725376,59.398534754291184,3.0438000000000045,0
103.55143702379429,59.00680782645941,3.0529000000000224,0
103.50464376364836,59.01562336739153,3.051000000000016,0
103.41769897495395,59.04676435142756,3.0482000000000085,0
103.36541202303488,58.630752624943845,3.051000000000016,0
103.06931402813645,58.27969141770154,3.052700000000016,0
103.03899954387451,57.85423283558339,3.0682000000000187,0
102.88627853384241,57.90815926063807,3.067000000000008,0
102.68642040761186,57.4961763182655,3.0615000000000236,0
102.62841153214686,56.99997324869037,3.0568000000000097,0
102.24417200137395,56.63555274810642,3.0582,0
102.16341785504484,56.087630779482424,3.0549000000000035,0
101.85248781600971,55.64836434274912,3.061600000000027,0
101.29051825345958,54.551228820346296,3.050800000000009,0
101.04896873119287,53.91694779973477,3.0570000000000164,0
100.91125198220834,53.99126735515893,3.0458000000000136,0
100.69891299656591,53.27657174505293,3.060400000000016,0
97.8035474345088,63.786765773780644,3.273600000000016,2
97.78047579468695,63.77839673496784,3.2593999999999994,2
97.74839163804428,63.78869817778468,3.2727000000000146,2
97.74556183861569,63.68634544033557,3.264600000000001,2
97.72201959928499,63.7880274290219,3.2701000000000136,2
97.72097984165885,63.70684342179448,3.273000000000025,2
97.69910193118271,63.804120750166476,3.2722000000000264,2
97.71657048724592,63.605562255717814,3.2670000000000243,2
97.69460780243394,63.706172672100365,3.2686000000000206,2
97.67028991563713,63.807834932580604,3.2763000000000204,2
97.69191929220688,63.59826479014009,3.2546000000000106,2
97.66424449009355,63.70984739903361,3.2722000000000264,2
97.64549743128008,63.80609261244536,3.270900000000012,2
97.66149946337099,63.604161573573954,3.2598000000000127,2
97.63620812247973,63.71358130779117,3.274700000000024,2
97.61987278284504,63.80655261874199,3.268700000000024,2
97.65318360843227,63.503892797976725,3.2597000000000094,2
97.63938570092432,63.61916359513998,3.2585000000000264,2
97.61564565706068,63.72862278390676,3.2741000000000042,2
97.59933857561556,63.820483066141605,3.2666000000000115,2
97.62868638522923,63.521057693287716,3.2613000000000056,2
97.60896587232128,63.62506037950516,3.262200000000006,2
97.58525408688,63.73340854048729,3.278100000000024,2
97.61479970184156,63.426205965690315,3.270900000000012,2
97.57454609125851,63.818740744143724,3.2615000000000123,2
97.59821004001421,63.52917653508485,3.268100000000004,2
97.58259383286352,63.6243896316737,3.258400000000023,2
97.56046160229015,63.7316662175581,3.2712000000000216,2
97.58440813026392,63.430991721339524,3.2725000000000084,2
97.54808927851265,63.82140308246017,3.261400000000009,2
