East,North,Altitude,Intensity
140.9721023718594,86.4594492195174,0.7776000000000067,21
125.74959484557621,103.87793993204832,3.0832000000000046,47
125.61159940459764,103.90222316794096,3.076300000000004,21
141.77733127737883,83.97405562084168,0.7395000000000209,30
125.61308829672636,103.4775733985007,3.0778000000000247,39
138.26709852705244,88.0204534092918,0.7642000000000166,20
152.78296187333763,67.62898505479096,0.7977000000000203,23
146.7427214620402,75.41763288527726,0.640500000000003,30
146.36229836684652,75.72702577337624,0.6457000000000049,58
141.5169694558717,80.84564366471021,2.191200000000009,22
145.1852647594642,76.65762989781797,0.6508000000000038,27
125.25443363620434,103.14493102114649,3.078000000000003,35
136.35482926026452,87.5871392050758,0.7903000000000021,22
140.77510175784118,80.26088996045291,0.7158000000000015,39
140.50151143688709,80.48962004762144,0.71550000000002,28
140.14988514105792,80.82642786111683,0.7423000000000002,27
125.1306199632818,102.73376991506666,3.085500000000025,26
133.17760871897914,89.77094010077417,2.8754000000000133,27
138.4526918397751,82.25075677875431,0.7887000000000057,31
125.00590504007414,102.29701568931341,3.0888000000000204,38
124.90870777505914,102.3345660250634,3.0863000000000227,38
124.78084945247973,101.86882639862594,3.0844000000000165,50
138.9448384579737,76.42104255221784,0.6350000000000193,43
136.21270637447014,81.48892197478563,0.65300000000002,25
138.07897260191385,77.26284229382874,0.6496000000000208,40
135.7103789220564,81.83079010434449,0.6234000000000037,40
137.11737575870941,78.14556485693902,0.6476000000000113,36
134.39403889339883,83.08137075603008,0.6747000000000014,26
133.5427520207595,83.74677405692637,0.6591000000000236,23
134.82345430739224,80.38852452207357,0.6899000000000228,46
133.04341116652358,84.15431148558855,0.657100000000014,21
134.48090073931962,80.64329411741345,0.6694000000000244,38
134.0846074637957,81.05790001805872,0.6816000000000031,24
124.20852564461529,100.99599794484676,3.0777000000000214,47
132.73759021353908,82.38552292156966,0.7186000000000092,37
132.4041592484573,82.6783241275698,0.71550000000002,21
124.11645053804386,100.43555830977856,3.098000000000013,27
123.98330355202779,100.51332881394774,3.088600000000014,34
123.49793654656969,99.36477556917816,3.0842000000000094,38
123.58073942456394,98.4285668646917,3.0841000000000065,20
123.14504715439398,98.8054834557697,3.0900000000000034,62
122.94013307406568,98.04317054990679,3.095400000000012,57
122.78938489384018,98.14161654189228,3.0859000000000094,31
119.76139942754526,108.18927650246769,3.3156000000000176,28
119.73537928308359,108.2052908167243,3.3131000000000204,31
119.72358135774266,108.08936893753707,3.3114000000000203,63
119.70332357124424,108.21448111440986,3.318900000000013,30
119.69163869472686,108.09411511849613,3.3108000000000004,68
119.67054874147287,108.22142962086944,3.3214000000000112,30
119.6743547442602,107.98027718346565,3.314300000000003,56
119.65645214926916,108.10433752182873,3.3158000000000243,65
119.64101779449264,108.2229019086808,3.316900000000004,31
119.64738938235678,108.00293793994932,3.3178000000000054,56
119.63112286035904,108.12370465323328,3.3170000000000077,65
119.61568850604816,108.242269041948,3.3185,33
119.62947109958624,107.88352513033895,3.318900000000013,45
119.61303500365464,108.01095801498741,3.3200000000000216,61
119.59915193519556,108.12956186477095,3.3167000000000257,65
119.58446496201212,108.24925701133907,3.320100000000025,31
119.5968093175907,107.88602952193467,3.315100000000001,48
119.58023191080429,108.01901755295694,3.3225000000000198,56
119.56637710507492,108.13651037123054,3.318100000000016,65
119.57670541689731,107.76100237481295,3.3157000000000214,57
119.55579444475006,108.24741594213994,3.3114000000000203,49
119.56245493853929,107.89404959883541,3.3157000000000214,51
119.54831750993615,108.02265270613134,3.319300000000027,60
119.53518182295376,108.14238731376827,3.318100000000016,65
119.53899410529993,107.77894278708843,3.325700000000012,53
119.52724012988621,107.90538302809,3.3207000000000164,55
119.52221257821657,108.0420001083985,3.31910000000002,60
119.52911487047096,107.64861699659376,3.312000000000012,38
119.5098807970062,108.16064341645686,3.318300000000022,65
119.5095887654461,107.80598846636713,3.3318000000000154,53
119.50030303059613,107.926932759583,3.3217000000000216,55
119.48940948571544,108.05005964450537,3.3205000000000098,61
119.4915166075807,107.66211329307407,3.3176000000000267,34
119.47601002885494,107.81402827426793,3.3326000000000136,36
119.4659486520104,107.93495283462109,3.3227000000000264,58
119.4695662347367,107.51813946384935,3.3076000000000083,43
119.45746682281607,108.05480582732709,3.31910000000002,63
119.45463746297173,107.67785137798636,3.3247000000000066,38
119.44165564968716,107.82204835023731,3.333500000000015,45
119.43394946376793,107.94192107394336,3.3227000000000264,58
119.43277187633792,107.53054446354507,3.311700000000002,46
119.41789963003248,107.68803431838751,3.326300000000004,38
119.41125798830765,107.94912608247249,3.3251000000000204,64
119.4075838974677,107.54435645230114,3.3186000000000035,49
119.395179891726,107.69635035656393,3.328400000000016,38
119.39300055347849,107.84304561745377,3.328400000000016,49
119.38764956512024,107.41266313381493,3.3148000000000195,47
119.3868739163736,107.96184677537529,3.318100000000016,20
119.37751596362794,107.5669382866472,3.318900000000013,53
119.36921627086123,107.71014261525123,3.3211000000000013,63
119.35407710657455,107.57301253639162,3.319300000000027,46
119.34586220118216,107.71288377977908,3.318900000000013,66
119.33470173832028,107.26678904611616,3.3085000000000093,60
119.33756250899752,107.85608810931444,3.3279,45
119.32583680085371,107.43221394903958,3.3176000000000267,54
119.3180866538314,107.58432623930277,3.3213000000000084,53
119.31142303487286,107.72423694096506,3.321600000000018,63
119.29618651932104,107.2858207579702,3.316200000000009,60
119.28990287194028,107.44130559451878,3.3166000000000224,51
119.28218098799698,107.5923068551347,3.319300000000027,49
119.26360323862171,107.1326824678108,3.314500000000009,40
119.27804213389756,107.72449954785408,3.3131000000000204,35
119.25784087437205,107.29818629659712,3.317300000000017,82
119.2531367756892,107.45259956549852,3.3184000000000253,54
119.25449650757946,107.6127258259803,3.3178000000000054,53
119.23095401446336,107.16520437225701,3.3218000000000245,36
119.23633955605328,107.47218373790385,3.3178000000000054,57
119.23108591325581,107.61768904700877,3.317200000000014,53
119.20607691956684,107.1667950451374,3.3168000000000006,43
119.18486135615969,106.99393447022884,3.3100000000000023,49
119.1988260797225,107.48234695009887,3.318300000000022,57
119.16672953322995,107.18802908435465,3.3243000000000222,36
119.14482311264145,107.01181569229813,3.314500000000009,53
119.17538722266909,107.4884212007746,3.3178000000000054,60
119.11978585692124,106.8366344049573,3.311500000000024,21
119.14171112712938,107.1951749017462,3.3245000000000005,43
119.1181686335476,107.02225513570009,3.3155000000000143,53
119.14091350778472,107.348575796932,3.318900000000013,82
119.0788306585746,106.86005104146898,3.3194000000000017,28
119.10500155424235,107.20424681529406,3.3225000000000198,43
119.07979472505394,107.03573170304298,3.3168000000000006,53
119.1050643653143,107.35433435719459,3.314700000000016,67
119.04299092409201,106.68237146735191,3.3097000000000207,25
119.04566015140152,106.88255395554006,3.3166000000000224,30
119.07424276391977,107.2234758362174,3.318100000000016,46
119.0467090056045,107.05490153003485,3.3119000000000085,60
119.0020639874274,106.70467707514764,3.3149000000000233,31
119.00478974054569,106.90263750590384,3.3213000000000084,30
118.97557908052113,106.70845034439115,3.3113000000000175,34
118.94154498749413,106.5208109738305,3.3133000000000266,47
118.94728852785192,106.72218341380358,3.3144000000000062,34
118.95156556856818,106.92018330655992,3.3214000000000112,33
118.9573530688649,107.08931617904456,3.3158000000000243,53
118.90009676711634,106.53309759311378,3.311500000000024,58
118.92502413818147,106.92617863602936,3.31910000000002,30
118.86197405681015,106.32311926409601,3.306100000000015,21
118.89320392510855,106.74304257147014,3.3154000000000114,39
118.88427618285641,106.75837993528694,3.3144000000000062,39
118.84883211250416,106.56514596194029,3.3112000000000137,54
118.8801907269517,106.94949661660941,3.314300000000003,22
118.81125894619619,106.36407559271902,3.310900000000004,24
118.79618258448319,106.37703305482864,3.3160000000000025,24
118.83174286619759,106.77927855495363,3.3161000000000067,39
118.75523991906084,106.15586551558225,3.311700000000002,41
118.79316796083005,106.58707668632269,3.312000000000012,60
118.7530417667003,106.39483535569158,3.3166000000000224,24
118.76418655179441,106.59745693858713,3.3119000000000085,54
118.7509158360772,106.60045460239051,3.310900000000004,58
118.66325868933927,105.95785811636594,3.3212000000000046,35
118.73753207165281,106.60789638292043,3.3122000000000185,60
118.64840842422564,105.9619273468852,3.319800000000015,42
118.69507894711569,106.41559586208315,3.3160000000000025,26
118.65218932274729,106.20994326472281,3.3204000000000065,41
118.61007533792872,106.00431039836258,3.3260000000000223,52
118.66004626988432,106.45028063282369,3.3196000000000083,30
118.5565559330862,105.72834729775785,3.3081000000000245,30
118.61261583550369,106.24006553646177,3.319800000000015,41
118.56386020837816,106.02092275116593,3.3251000000000204,56
118.5098886077758,105.76273611094805,3.3166000000000224,31
118.57042023306713,106.25122139789164,3.3166000000000224,48
118.45041841058992,105.47661590762436,3.3044000000000158,31
118.47766331315506,105.77859258744866,3.3178000000000054,33
118.50354219530708,106.04273509513588,3.3234000000000217,59
118.40219979803078,105.51096525881441,3.3114000000000203,33
118.43288641993422,105.79968851618469,3.31910000000002,33
118.45890661457086,106.05827587842941,3.3222000000000094,56
118.35337511578108,105.5386287095025,3.3148000000000195,31
118.39190295594744,105.824216183275,3.314500000000009,61
118.32638148684056,105.56240050122143,3.3131000000000204,31
118.25846399110742,105.27273017726841,3.3111000000000104,43
118.24264024710286,105.28455688152462,3.313400000000001,48
118.26400346681477,105.60417190380394,3.3207000000000164,37
118.24843408237213,105.60599934775381,3.3178000000000054,52
118.15716250566764,105.3190701957792,3.3113000000000175,64
118.12410504266155,105.3371289987117,3.3126000000000038,64
116.23318359954284,109.49588179122655,3.4299000000000035,44
116.2172468228964,109.51215261500327,3.4345000000000137,49
116.31409855396488,109.61022658087313,3.435900000000004,38
116.18643152958248,109.53360370639713,3.4360000000000066,57
116.1725108015817,109.56215503718704,3.4371000000000147,57
116.27482029190287,109.65925608575344,3.440000000000026,38
116.36713121202774,109.75276755262165,3.4399000000000233,51
116.25658484967423,109.67435669060795,3.442200000000014,38
116.34584972332232,109.76556717976929,3.4378000000000095,49
116.43060204829091,109.85110414214432,3.4313000000000216,82
116.11659233109094,109.59408504515886,3.4332,35
116.22732084209564,109.69584724213928,3.4435,38
116.40932055981831,109.86390376556663,3.428800000000024,72
116.50105366471688,109.94961830414832,3.4334000000000064,60
116.2014137604274,109.70741745643318,3.4379000000000133,59
116.30303239054048,109.80116568692029,3.4432000000000187,49
116.38315912254619,109.88547323830427,3.430800000000005,82
116.46799623058178,109.96767711546272,3.426600000000008,69
116.17367277643645,109.7300584977493,3.4408000000000243,26
116.45953326101879,109.99525553174317,3.4294000000000158,66
116.5459781750105,110.07527681440115,3.4301000000000097,68
116.2606798214838,109.84900524280964,3.4426000000000267,60
116.34543214633595,109.93454220518471,3.4338000000000197,76
116.43569875124376,110.0168841956183,3.432900000000018,70
116.3288045132067,109.9474602136761,3.4341000000000013,82
116.41671592905186,110.03085404168813,3.431900000000013,70
116.50856207846664,110.11212446447462,3.4360000000000066,63
116.58506494760513,110.18633410520852,3.4279000000000224,63
116.29491491359659,109.96772135235369,3.430200000000013,67
116.38673280365765,110.0501028029248,3.4284000000000106,66
116.57076424174014,110.19931130297482,3.4290000000000016,56
116.37159993196839,110.06528232805431,3.4320000000000164,70
116.46859296050388,110.15780115313828,3.4323000000000263,65
116.5497214223724,110.23324020486324,3.426400000000001,63
116.45271270850208,110.17184991668908,3.4343000000000075,65
116.53464507427998,110.24619767256081,3.4278000000000186,65
116.6196800079197,110.32062435057014,3.4298,78
116.51951220282352,110.26137719955295,3.429500000000018,65
116.60072544799186,110.33348316699266,3.4268000000000143,84
110.48665996722413,105.95443021599205,3.5396000000000067,69
116.69202204258181,110.40584563091394,3.4373000000000222,61
116.40526978485286,110.20621901471169,3.4301000000000097,32
116.58714386133944,110.34870215225963,3.4299000000000035,84
116.67617005226202,110.4187833685428,3.4371000000000147,59
116.75054382113741,110.48515662085264,3.431400000000025,66
116.4743962069042,110.2958054849878,3.426300000000026,63
116.56644018390215,110.36929870862515,3.432900000000018,78
116.74210911267436,110.51162400841713,3.431000000000012,57
116.81498811871279,110.57573574222624,3.4246000000000265,37
116.55565028719137,110.39681793283673,3.431900000000013,84
116.64700340502895,110.46695834118871,3.4398000000000195,64
116.79295925132463,110.58740460686386,3.4147000000000105,76
116.63267443794756,110.48104656673969,3.4415000000000187,61
110.7587983686244,106.51500279549506,3.5374000000000194,74
116.70552518346813,110.54626932740213,3.4322000000000235,66
116.61759809032084,110.49400403350592,3.4414000000000162,64
110.68230493378358,106.53195677604526,3.5397000000000105,83
116.6920001206454,110.55926625616848,3.4334000000000064,67
116.76260872301646,110.62109674140812,3.4213000000000022,75
116.84634672082028,110.68548470269887,3.429500000000018,73
116.59451096237171,110.5167634552345,3.4421000000000106,64
116.66896951640958,110.57980362046509,3.431900000000013,67
116.832849919796,110.69737060181795,3.4287000000000205,73
116.5717064528726,110.52841259073465,3.4334000000000064,20
116.8369667986408,110.71859853155912,3.4347000000000207,73
116.9045858756872,110.77590598259121,3.422800000000024,52
116.65490747895092,110.61391009483486,3.4332,66
111.03027717571241,107.00996549986306,3.5325000000000277,40
116.72551608097272,110.67574058193712,3.4210000000000207,75
116.81396445608698,110.73802486713976,3.430800000000005,82
116.89086297969334,110.79668011143805,3.429600000000022,42
116.63110123260412,110.63442772906272,3.4320000000000164,57
116.70943799661472,110.69756654836235,3.4268000000000143,81
116.87481315690093,110.817395048216,3.435200000000009,42
116.85721204942092,110.8380705267191,3.4376000000000038,57
116.8480016984977,110.8645181823522,3.4341000000000013,56
108.91640736279078,106.17241413146256,3.5441000000000145,64
116.82652237941512,110.88509500585495,3.43210000000002,59
116.72346242156344,110.8480092342943,3.430200000000013,24
116.81124819931574,110.9058296745643,3.4363000000000175,68
111.52797089482193,107.88756482582541,3.5377000000000014,45
116.79459230566864,110.9198587089777,3.4332,62
116.78494545526337,110.93295428995043,3.4360000000000066,29
111.35250301484484,107.95091811195014,3.5384000000000237,73
109.23824051488192,106.79317330848427,3.5444000000000244,78
111.65112272941042,108.29426179639995,3.5323000000000206,63
111.51876737934073,108.34092375915499,3.5353000000000065,70
109.5443250943208,107.33126259688288,3.541800000000024,54
111.82304265035782,108.67551732994616,3.5356000000000165,75
111.72897640406154,108.71203576121479,3.5375000000000227,79
112.06364607927391,108.98069762066008,3.532400000000024,24
111.98932262789457,109.0343944551423,3.5380000000000114,40
111.87675400800072,109.06599525175987,3.531900000000008,64
110.10309083538596,108.340489721857,3.5556000000000267,43
112.18893002346157,109.33408495504408,3.538800000000009,40
112.10150543507187,109.38411329220979,3.5374000000000194,73
110.33509966521522,108.76996706053616,3.550600000000003,47
112.38718394143507,109.62595880031586,3.539900000000017,32
110.17343948187772,108.80921315122394,3.5459000000000174,55
112.30932141456287,109.66622463427484,3.5425000000000177,49
112.22250290587543,109.72293887380508,3.542200000000008,60
110.62213821825571,109.17193873692305,3.557700000000011,37
112.52654553530736,109.91411112155764,3.532700000000005,35
110.47214094200173,109.21036973502487,3.551400000000001,76
112.45014951238407,109.95774949993938,3.5356000000000165,56
110.37519822781906,109.2379210377112,3.5489000000000037,40
112.39509149198419,109.98636618349701,3.5361000000000047,53
112.65263641043566,110.20526112429798,3.5333000000000254,33
110.73503716231791,109.58504537865521,3.5524000000000058,40
110.63036628835836,109.6112883500755,3.5453000000000263,60
112.54174472950399,110.26247475855051,3.5315000000000225,57
112.77592298435049,110.45409338362516,3.526600000000002,48
112.73902820551302,110.50096004549414,3.528700000000015,50
112.70333298656624,110.53118100296707,3.5344000000000046,66
112.88891269871964,110.74157489743084,3.532800000000009,42
112.46834804886021,110.67640140280129,3.5372000000000132,23
111.10934054898098,110.30942012183368,3.5605000000000184,70
112.82062483159824,110.80209573265164,3.532800000000009,42
112.77863969176542,110.83549193758519,3.536500000000018,42
112.74489141511732,110.85019795317206,3.5326000000000017,39
113.06160168023779,110.97054060641676,3.535800000000023,20
93.222208842868,106.56034972146152,3.2409000000000106,22
111.28796167334076,110.64081745408475,3.557700000000011,51
112.9263950753957,111.06827039923522,3.5383000000000213,43
106.69260247866623,109.71791151724756,3.460300000000018,47
112.890247680014,111.11626781895755,3.5411,40
113.12968890089543,111.25354469660671,3.534600000000012,30
113.08224600483663,111.28791381884365,3.534200000000027,61
111.406688752817,110.97736177314071,3.5496000000000265,43
113.29702055733652,111.44902171008287,3.5286000000000115,22
113.2266601177398,111.49948409199716,3.525300000000016,50
113.17255990521515,111.55147183313964,3.5303000000000115,53
111.5567241187673,111.30358499847351,3.5521999999999987,56
111.45267194393094,111.36653136461972,3.552100000000024,38
113.39926736499184,111.6706368541345,3.5247999999999986,32
107.20245603483637,110.81928104627876,3.4625000000000057,32
113.35180879756807,111.7361345104873,3.528200000000026,44
113.32961037382485,111.7544695585966,3.5277000000000096,51
111.80644039763138,111.55563319660723,3.5568000000000097,34
113.26462291018106,111.80729210935532,3.526400000000024,58
111.69690220640041,111.62066350784151,3.5526000000000124,74
111.59124222851824,111.68579247035086,3.550000000000012,27
113.49856549000832,111.91663544345649,3.5254000000000185,44
113.46663544070907,111.95139916241169,3.528900000000021,47
113.10531180608086,111.96777836885306,3.528900000000021,21
113.40665355429519,112.0210252534598,3.5263000000000204,54
111.93087953364012,111.88120534829795,3.5621000000000147,20
111.77949752449058,111.97407672461122,3.5532000000000044,43
113.61862379056402,112.13981541153044,3.525100000000009,49
113.57888079725672,112.17660388909279,3.52370000000002,59
107.75328319077379,111.80495933629572,3.471700000000027,28
113.23395870567764,112.18895330373198,3.5307999999999997,25
113.52671185566578,112.24420522060244,3.5222000000000264,56
112.10321371548343,112.15463191177696,3.5640000000000214,22
112.03138679242693,112.2017217613757,3.5594000000000108,52
111.96418546244968,112.25004101917149,3.5567000000000064,48
113.73810426914132,112.35519845038652,3.5240000000000014,39
108.02439761639108,112.253219245933,3.467500000000001,31
113.33782589621842,112.43840335682033,3.5257000000000005,23
113.63746244227514,112.46714842785151,3.5268000000000086,44
112.19377891719341,112.46933669596909,3.5548,27
113.60003070288805,112.53512463066728,3.531900000000008,37
113.86944546177985,112.56198921427129,3.527300000000025,22
112.11172734398859,112.52172520011663,3.5454000000000008,50
113.83820627140813,112.60010574758051,3.528400000000005,49
112.04679642082192,112.57232570461927,3.5433000000000163,32
113.81328526383732,112.63393600750716,3.5320000000000107,53
113.79022641549818,112.65558441076428,3.5294000000000096,57
105.88659440900663,111.47175918798892,5.657500000000027,34
108.21887734776828,112.72398832067849,3.4650000000000034,27
108.13400584878401,112.76518767140806,3.4608000000000065,23
113.73436141875573,112.7464384259656,3.532800000000009,53
113.9775299669709,112.7982055833563,3.531900000000008,28
112.20255948160776,112.8564482331276,3.5452000000000226,24
113.91660287161358,112.87447811197491,3.5330000000000155,33
113.59050664340613,112.90954133309424,3.5306000000000215,29
106.8008197976742,111.84076682012527,5.895500000000028,22
108.37625188310629,113.2193837845698,3.4690000000000225,41
113.85711401654407,112.95523421559484,3.536500000000018,59
114.09225919784511,112.98678582906723,3.516200000000026,35
112.41655527986586,113.07868240680546,3.5473000000000066,44
106.8828183687292,112.00405593775213,5.982800000000026,20
114.05829742236529,113.04039757419379,3.521500000000003,65
114.03013253980316,113.07970405742527,3.5224000000000046,70
112.61551866098308,113.28163450118154,3.5468000000000184,34
113.94480572990143,113.1998258335516,3.5257000000000005,76
114.20528015261516,113.21201029606165,3.5193000000000154,24
112.5393739498686,113.37641966249794,3.54340000000002,52
112.47823645826428,113.43045189790428,3.537900000000008,39
114.14539563690779,113.30832080077379,3.5244000000000137,68
107.42900876980276,113.78229231853037,4.100500000000011,20
114.12188460712788,113.34774566348642,3.527200000000022,64
113.81708245852495,113.40002674609423,3.528300000000001,30
114.07996858307159,113.40893730893733,3.5279000000000167,75
107.18667030357756,112.62991638854145,6.345500000000016,20
112.71692713408264,113.62774404883385,3.5482000000000085,38
114.04228249122387,113.48691276740284,3.5274,24
107.22448853868993,112.72982387337835,6.397000000000019,20
114.29171576164663,113.47546967864037,3.5169000000000215,39
114.26384607702494,113.53368337824939,3.5232000000000028,37
114.24191459291616,113.57203667424619,3.5254000000000185,38
112.92418386915232,113.80978390667588,3.5489000000000037,24
114.19913814263418,113.6365416748449,3.52370000000002,70
114.18379177711904,113.69062694441529,3.526900000000012,56
112.8403235906735,113.93327824305744,3.5481000000000047,34
107.3847895951476,113.07965480722488,6.600200000000001,20
114.41149138542823,113.70975995250046,3.5216000000000065,39
107.421508703148,113.16174637340008,6.650000000000006,22
114.38364996213932,113.76686262339355,3.5260000000000105,41
114.35692331858444,113.8106526788324,3.5247000000000237,51
114.0639662333997,113.88547001127155,3.5280000000000205,30
114.33648659568279,113.85126749053595,3.5275000000000034,54
113.03306612151206,114.16720104869455,3.5528000000000186,30
107.54528845380993,113.42170854471624,6.801000000000017,20
112.99442224833186,114.2218054495752,3.5540000000000016,30
112.92304443800822,114.31226486992092,3.5507000000000066,25
114.52510270732456,113.97279886435715,3.52970000000002,30
107.60311642370651,113.55881267227232,6.885300000000001,20
114.47863019770011,114.06055654957892,3.5296000000000163,37
107.9789207216818,114.16315665934236,6.013500000000023,39
113.20362589601429,114.38833037298171,3.550600000000003,38
113.16921195539179,114.45971858408302,3.549200000000013,40
114.43805194878952,114.16069339122623,3.5281000000000238,37
108.35997879900971,114.8965970361605,4.936600000000028,40
108.42594314913731,115.04947259929031,4.725999999999999,20
113.10636620549484,114.5503950342536,3.548000000000002,46
108.37328732537571,114.9836518699303,4.987700000000019,43
114.65403212571981,114.18286354281008,3.5225000000000084,35
108.46906518703327,115.12394480593504,4.779600000000016,20
114.64301615091972,114.21927099954335,3.5278000000000134,35
108.49729611736255,115.17357979062945,4.81480000000002,21
108.09210839599837,114.44286088086665,6.182900000000018,20
108.4273092211224,115.08730676490812,5.058400000000006,25
114.62800892058294,114.2600239207968,3.531100000000009,40
108.52076015458442,115.22754051350056,4.850300000000004,22
108.11557244008871,114.49682160187514,6.217700000000009,20
108.69829823076724,115.78459499683231,3.9360000000000066,34
108.45398886816109,115.13690229132773,5.093100000000021,25
108.56683737528509,115.4299388686195,4.650500000000021,20
108.49357182125095,115.19794350583108,5.128399999999999,32
113.35233587992843,114.70562595594673,3.553500000000014,40
108.74185677582865,115.87241928093135,3.9887000000000232,64
108.59659132617527,115.48072434123604,4.6869000000000085,20
108.70331946690568,115.77026999928057,4.241100000000017,43
114.59080017276573,114.38025793246923,3.535800000000023,51
108.58384801319336,115.37144893221556,4.9375,27
108.18874366069213,114.64098649658264,6.303500000000013,20
108.535142573528,115.27237625420094,5.1798,22
113.287882323144,114.79848500248043,3.5485000000000184,36
107.90808296483009,114.17136054951699,7.253399999999999,24
108.66088176937772,115.5468410141766,4.743000000000023,51
108.67336116789377,115.57495213486254,4.761800000000021,51
106.59463438566307,116.80392240267248,3.936600000000027,29
114.53554125071967,114.47779784351587,3.5276000000000067,26
108.24290686484892,114.73908624704927,6.368600000000014,21
108.62943523365541,115.50157122593372,5.020400000000024,21
108.2601248989813,114.76398265734316,6.3858000000000175,20
108.64429807849228,115.52751947753131,5.038300000000022,25
108.26872609206477,114.79199512861669,6.4032000000000275,20
108.59165791166015,115.4305702103302,5.281000000000006,20
107.98091507074423,114.3288577841595,7.353500000000025,23
108.59712827438489,115.45961479470135,5.298000000000002,22
108.52346707601102,115.24317383486779,5.771100000000017,30
108.31455505592749,114.88210065476595,6.454100000000012,20
108.94621227378956,116.26005852129309,3.9338000000000193,46
108.51882583578116,115.27307296544313,5.787000000000006,20
108.94780442561024,116.2890044571832,3.948599999999999,53
108.65077016630676,115.54769556131214,5.3514000000000115,25
108.91723397152964,116.20929277501999,4.2187000000000126,68
114.73233768041244,114.58286109380423,3.524100000000004,47
108.62090621481184,115.44020815938713,5.595600000000019,21
108.93054552993273,116.23520156741142,4.23660000000001,68
114.72240822424645,114.60706696379931,3.5238000000000227,45
108.8747680253582,115.9869748177007,4.723000000000012,39
108.68375233421101,115.62413334473969,5.401700000000004,25
114.70102629018947,114.6543282158673,3.522100000000023,72
108.6593461364973,115.51567301899195,5.6469000000000165,23
114.69583546987269,114.67531938292086,3.524500000000017,72
108.675012883381,115.540529971011,5.6644000000000005,26
114.68119564000514,114.70162893086672,3.5219000000000165,60
108.84404061431995,115.94394681509584,5.0009000000000015,45
108.67970760399477,115.56955482531342,5.6815,23
114.67359310970642,114.72589399199931,3.5232000000000028,48
108.85496872768272,115.97201847657558,5.019200000000012,29
108.70315902843141,115.59349804371595,5.700300000000027,27
114.66139325150287,114.74781861621885,3.521000000000015,24
108.86684204544872,115.99344369489701,5.033800000000014,34
108.70799505105242,115.61696775443852,5.714400000000013,26
108.9540030392818,116.1368527021259,4.8271000000000015,45
108.76060391194187,115.77617409639059,5.5046000000000115,43
114.92890801106114,114.69681257847694,3.5271000000000186,50
108.97404102818108,116.17293831892313,4.8437000000000126,45
108.77828671771569,115.81331155076624,5.520900000000012,37
108.91264273016714,116.08466025535014,5.0874000000000015,31
108.74670192389748,115.71245086379349,5.7672000000000025,27
109.17174571240321,116.7305057840422,3.927600000000013,42
114.91062864300328,114.74415275268257,3.5260000000000105,59
108.99675767589359,116.2257682867348,4.878399999999999,51
108.79626473714598,115.8693562280387,5.555300000000017,25
109.122349434183,116.62808028608559,4.177500000000009,53
114.90704562899192,114.76296132151035,3.528900000000021,56
109.00222803582436,116.25481287017463,4.895000000000009,80
108.81195974280126,115.89310215134175,5.572900000000003,22
109.1309506201651,116.65609276108444,4.194500000000005,53
114.90584606386257,114.77960702404378,3.5336000000000065,50
108.71675015217623,115.66944259218872,6.043500000000023,30
108.48891189240385,115.32011721469463,6.727100000000008,20
108.89054476842286,116.06853369716556,5.380500000000012,22
108.72931433166376,115.6942206248641,6.059800000000024,28
108.4991491481196,115.34483606088908,6.743500000000013,21
109.21413295390086,116.83386474568395,3.9948000000000254,28
108.97546361701096,116.20855042897163,5.171700000000016,45
113.65802092081869,115.32041591964662,3.5537000000000205,30
108.80245726159772,115.83949655573817,5.8507000000000176,83
108.91179491532965,116.11799111869186,5.413000000000012,68
108.75369530869648,115.74264593608677,6.092300000000023,30
108.52350186824332,115.39437239896505,6.7760000000000105,21
108.78644357644951,116.83521511405706,4.457900000000024,49
109.0092370712664,116.25387940742077,5.206300000000027,45
113.62931908504106,115.38083195034416,3.554500000000018,33
108.82523043313995,115.8901044651866,5.8843000000000245,56
114.86251696292312,114.89635010343044,3.531900000000008,56
109.0775565744843,116.40570313949137,4.997600000000006,29
108.8825496592326,116.04720712639393,5.674900000000008,52
109.1529981510248,116.55214929208158,4.7851,43
108.94546793680637,116.19778171833605,5.4649,25
109.0453783182893,116.32817405369131,5.256200000000007,23
113.56690984230956,115.48486047144979,3.5467000000000155,63
108.85663305292836,115.96761381998657,5.934000000000026,27
109.18310382450001,116.6196199292317,4.8163000000000125,47
108.98579825856724,116.25995369534941,5.496800000000008,25
108.80572634877173,115.89405534509571,6.1755,20
109.2192828868283,116.78396709822118,4.5976,24
109.0739327109186,116.39560523163529,5.287300000000017,45
113.53683887864464,115.56858837790787,3.542300000000012,27
108.89383255003487,116.03081790637223,5.965400000000018,30
115.07048634055536,114.9283222258091,3.514800000000008,26
109.20986823982092,116.66588237322868,4.8493,51
109.01175877498464,116.30730743706226,5.529500000000013,36
108.82775213872084,115.94353249575943,6.208100000000003,27
109.1571998319123,116.57004412915558,5.0952000000000055,31
108.95665039366577,116.21585412230343,5.772300000000001,31
109.4051611775067,117.22672374546528,3.9273000000000025,29
115.0585534144193,114.97026509791613,3.5161000000000233,30
109.23189402348362,116.71535952482373,4.881700000000024,51
109.03927057411056,116.3547006379813,5.562300000000022,49
108.8497779284371,115.99300964642315,6.240700000000004,38
109.3597561579663,117.11995277740058,4.178900000000027,61
109.26712787884752,116.8863531369716,4.665900000000021,27
109.1186186212581,116.50013440940529,5.355000000000018,35
108.94951875251718,116.13006815034895,6.033500000000004,70
108.99195947882255,116.29235109500587,5.823100000000012,67
109.44518062099813,117.30111704021692,3.9791000000000167,51
115.04688742186407,115.03222621791063,3.5226000000000117,28
109.07213969028088,116.43558253813536,5.614900000000006,29
108.66176132997498,115.72585475631058,6.979100000000018,20
109.01634045108221,116.34077640715986,5.855700000000013,33
107.39008126605768,118.425071997568,3.863,55
109.34886240737978,116.9684779997915,4.737600000000015,64
109.15707113640384,116.60561677999794,5.421300000000002,31
108.98874691477975,116.23557024914773,6.1004000000000085,33
115.0281276067253,115.0984538802877,3.523900000000026,30
109.28829628601672,116.87799760419877,4.982100000000003,78
109.1114117624238,116.50884507410228,5.664800000000013,27
108.915572690079,116.15255138929932,6.343600000000008,65
108.69551913836041,115.80231226887554,7.02940000000001,20
114.7535285204649,115.24489000439644,3.5298000000000234,21
109.06109853670931,116.41195499058813,5.9057000000000235,31
108.66568344982807,115.69371383916588,7.272100000000022,20
109.07789265504108,116.45351683534682,5.923900000000002,37
108.6801223871298,115.73632752336563,7.2912000000000035,22
109.41127502161542,117.07790507376194,4.805300000000017,68
109.20294093957637,116.72462879214436,5.487700000000019,35
109.04093489958905,116.35029598046093,6.167500000000018,36
109.4245583153097,117.10492489766328,4.823500000000023,64
109.21464469109196,116.75272018369287,5.505900000000025,29
109.05263865273444,116.3783873729408,6.1857000000000255,51
109.43396340124308,117.13184607215227,4.840200000000009,68
109.23111533455084,116.7764858389273,5.523300000000006,29
109.0651745686773,116.4042764371261,6.203000000000002,30
109.44891102006659,117.15446123853327,4.856800000000021,64
109.23819349706172,116.8033478250727,5.539200000000021,26
109.07931828871371,116.42798290215431,6.219200000000002,36
109.3285983389942,116.94128060899678,5.330700000000006,39
109.13353493600151,116.58500664681196,6.009100000000018,57
109.47403936600313,117.20401731040329,4.890100000000018,64
109.27038740226999,116.84974837489426,5.573100000000012,26
109.09344635542948,116.48281790502371,6.252800000000009,30
109.60411535436288,117.61311387270688,4.181900000000013,51
114.96953381737694,115.32709518354385,3.522900000000021,23
109.21298036584629,116.75712484121323,5.815400000000012,52
108.81354581017513,116.0443401746452,7.182100000000019,24
109.66755489166826,117.77370746340605,3.9563000000000272,56
109.36241265269928,117.01551606971772,5.378900000000017,39
109.16261062317062,116.662456815131,6.057800000000015,35
108.97389363660477,116.30078554805368,6.738700000000023,25
109.68011906230822,117.79848550166938,3.972500000000025,46
109.56440027977806,117.37418966460972,4.691200000000009,26
109.38121021946426,117.03934091143309,5.397500000000008,32
109.1798286479898,116.68735322728752,6.076100000000025,40
108.98637303221041,116.32889666873963,6.757200000000013,23
109.67680301528891,117.83731232024729,3.986700000000013,25
109.57216929970308,117.40440446697176,4.7083000000000075,43
109.38596145622431,117.06614371109755,5.412200000000013,22
109.18460814654829,116.71304499637337,6.091300000000018,31
109.6736565321917,117.86947296652944,3.9987000000000137,20
109.58559389493895,117.42586914729328,4.723700000000008,43
109.1939284526743,116.74329925701021,6.1096,26
107.68839025695343,119.05523849930614,3.8827,34
109.2785081574693,116.89664833899587,5.898500000000013,24
109.08660383766986,116.53823123779148,6.579599999999999,20
108.87984926090576,116.18388339783995,7.266600000000012,27
107.71067038527691,119.0947163850069,3.901400000000024,31
114.01967772981152,115.96219985745847,3.5570000000000164,21
109.28782846243121,116.92690260056406,5.916600000000018,23
109.09359721955843,116.56842631008476,6.598200000000019,23
108.90019811550155,116.20774769689888,7.284400000000005,31
113.99926927650812,116.00170364324005,3.5532000000000044,35
109.29878483247013,116.95386323332787,5.933800000000019,23
109.10452533059288,116.59649797249584,6.615700000000004,21
108.91586485935841,116.23260464984925,7.3016000000000085,38
114.92311162792612,115.53492289688438,3.524500000000017,20
113.98925504111685,116.02924260124563,3.553800000000024,28
109.3145646150224,116.9742760723457,5.9491000000000165,20
109.11479084193708,116.62010578904301,6.631100000000004,23
108.92848555766977,116.25516062695532,7.316900000000004,63
109.59440550627188,117.47612192761152,5.05540000000002,24
109.39549219037872,117.11863827891649,5.7406000000000015,29
109.21145734307356,116.75597435235977,6.421800000000019,42
109.60610925464424,117.50421332102268,5.073100000000012,21
109.40558813605458,117.14891226869075,5.758700000000005,26
109.2247123781126,116.78410520404577,6.4402000000000035,33
109.68314600409941,117.61845937557518,4.842800000000012,43
109.2813689848408,116.93674402404578,6.2275000000000205,35
109.63132237957323,117.55043630767615,5.104400000000028,23
109.42767043737696,117.19616736564785,5.789900000000018,29
109.24205605091991,116.83457500860096,6.471900000000005,23
109.64937256276608,117.5731303934008,5.121900000000012,27
109.43862680601887,117.2231280002743,5.807000000000016,29
109.25459196488373,116.86046407278627,6.489200000000012,23
109.750573735917,117.83585354499522,4.6539000000000215,21
109.66032892977819,117.60009102802722,5.1387,23
109.45116271846928,117.24901706352829,5.824200000000019,31
109.26238924753851,116.8895678464323,6.506800000000028,22
109.72711277368944,117.72074677143246,4.9069000000000065,50
109.53921236319002,117.38800169434398,5.614200000000012,20
109.32599836587906,117.04349526017904,6.295700000000012,42
109.4078146239044,117.18343308102341,6.084700000000026,21
109.20881650503723,116.82928252499549,6.7686000000000215,21
109.81744541134684,117.89203015901148,4.708000000000028,46
109.69837317441124,117.69111029803751,5.187100000000015,23
109.48995434970129,117.34116709139198,5.8736000000000095,29
109.30359259073157,116.97844397462904,6.556900000000013,23
109.74936158081982,117.82248173840344,4.953000000000003,50
109.57487316557672,117.48118383251129,5.663100000000013,20
109.37349162111059,117.12919613905252,6.345500000000016,35
109.44663451693485,117.27447208017112,6.134500000000003,22
109.8602000218816,117.98094575107098,4.756300000000009,49
109.53227245504969,117.41673060692848,5.925100000000015,29
109.33801298274193,117.05936533678324,6.609100000000013,26
109.15007166180294,116.6977137932554,7.2949000000000135,43
109.40874417393934,117.2079151738435,6.396500000000002,31
109.20822303334715,116.85261412896216,7.082800000000019,20
109.48183054663241,117.35541317146273,6.186200000000013,22
109.49367559875827,117.3779494194314,6.2014000000000085,23
109.90804499282969,118.08333179634063,4.821100000000001,49
114.17566050542518,116.35972629953177,3.546199999999999,50
109.58169697993436,117.51804507896306,5.991700000000009,29
109.38663361198269,117.16177110653369,6.676700000000012,27
109.19320628512652,116.80220351368187,7.364000000000003,20
109.45107488660143,117.31349619384858,6.464000000000027,26
109.26390922232531,116.95186437666416,7.1503000000000165,23
109.53050769201947,117.45559688471258,6.252200000000017,22
109.32602357794529,117.1035302747041,6.939300000000002,21
109.94329753250351,118.16205083206295,4.8700000000000045,49
114.13250099588187,116.46980321314186,3.5400000000000205,60
109.61778169032186,117.59456178639084,6.041200000000004,26
109.42352222918998,117.23719651345164,6.7269000000000005,26
109.5515882645268,117.51172048226,6.2868,23
109.3502632410964,117.1575107332319,6.974500000000006,21
109.50949624506755,117.42726873699577,6.531300000000017,28
109.31919976160862,117.06666902825235,7.218800000000017,26
109.98596735706087,118.254299512133,4.919000000000012,38
114.11266725929455,116.57824997231363,3.542700000000025,45
109.66605057835112,117.6802823971957,6.0907000000000275,24
109.46311776316723,117.32825524173677,6.7774,26
110.05342638725416,118.40943661145866,4.6983000000000175,21
109.60138017660938,117.59859158005564,6.337600000000008,23
109.39138179924342,117.24971994757652,7.026500000000027,25
109.53599065286107,117.51465897634623,6.584100000000007,28
109.3638447956182,117.14229173026979,7.271000000000014,25
110.00691922102123,118.34599576331676,4.966800000000006,31
114.07892849738708,116.68411953095348,3.541800000000024,22
109.68944241665304,117.76759371999651,6.141200000000026,26
109.49518296553288,117.41022844333203,6.8292000000000135,22
110.12684305477889,119.00164208561182,3.9869000000000203,24
110.09735228202773,118.48281753249466,4.747900000000016,22
109.63746488606556,117.67510828655212,6.387400000000013,21
109.42824215523432,117.32625638227908,7.077300000000008,23
109.57601009239443,117.5890522748232,6.634100000000018,28
109.40779896883758,117.21456161700188,7.321200000000005,25
109.72699362493586,117.84748297184706,6.1928000000000045,26
109.53273417882157,117.49011769611387,6.881900000000003,22
109.74027691525407,117.87450279761107,6.210000000000008,26
109.5421110028401,117.51814989931879,6.899700000000024,22
110.14583158225288,118.59077845327556,4.813800000000015,21
109.47835754218977,117.43092367053032,7.147000000000019,23
110.19812950759659,118.76220612414178,4.585100000000012,29
109.62296638754196,117.69586270209402,6.703100000000006,28
109.77788464352487,117.952169992961,6.260700000000013,26
109.5765313882148,117.59907126333565,6.951600000000013,22
109.79714697983582,117.98823588434608,6.275900000000008,26
109.59582198748829,117.63402612507343,6.967100000000016,22
109.80882246536206,118.01743830740452,6.294200000000018,26
109.6090487575857,117.6632680054754,6.9858000000000136,22
109.82454572198911,118.04007320385428,6.310400000000016,23
109.6231924726162,117.68697447236627,7.002100000000013,22
109.83788553287741,118.0648709703237,6.326600000000013,26
109.63101801276207,117.71496721636505,7.019100000000009,22
109.8574587358162,118.08871554490179,6.344700000000018,23
109.64585258695296,117.74202649947256,7.037700000000001,23
109.86367647023873,118.11889088898896,6.361100000000023,24
109.65761285577899,117.76789583638309,7.054400000000014,22
109.88172665075399,118.14158497471364,6.378300000000024,23
109.67170004872604,117.79382436163723,7.072000000000003,26
109.8872252650326,118.16951853223145,6.393700000000024,24
109.68035775143652,117.81961477641016,7.0878000000000165,23
109.89571340195835,118.2019751239568,6.4121000000000095,26
109.6975475102663,117.84562222007662,7.106200000000001,23
109.91382010350937,118.2224471522495,6.428200000000004,23
109.70614869135899,117.87363469600677,7.1233,23
109.92951509845443,118.24619307927787,6.444400000000003,23
109.72109630738849,117.89624986425044,7.139700000000005,23
109.93811627803369,118.27420555241406,6.460800000000006,23
109.73601566255093,117.9199760593474,7.156100000000008,23
110.40548999060414,119.12323991674931,4.811400000000019,39
109.79900302214081,118.09834611229601,6.944000000000018,26
110.4261622976046,119.16490041278306,4.828800000000001,39
109.82015576842241,118.12111911736427,6.962100000000022,26
109.99237680330408,118.39898974169044,6.5304000000000135,23
109.79581872839479,118.04045423679054,7.22720000000001,27
110.460526139359,119.24804383795707,4.876200000000012,36
109.85543656977823,118.19872712623327,7.012200000000008,23
109.94747744046616,118.33336629439144,6.795500000000003,24
110.03153580776414,118.47669639810921,6.580500000000002,23
109.84052027028521,118.11385488417,7.277800000000013,23
110.48377665493172,119.34091030899435,4.921100000000023,23
109.89683771925048,118.27982605807483,7.065300000000009,23
109.98571950092446,118.41660836618392,6.848300000000022,20
110.06512401765212,118.55982009321451,6.632000000000005,26
109.88281010487115,118.19052943121643,7.329900000000008,23
110.53950672096107,119.4079210050404,4.971300000000014,25
109.9383801711956,118.35536984540522,7.1162000000000205,25
110.01775642915165,118.49969260022043,6.899600000000022,21
109.91494747588877,118.23915204312651,7.363900000000001,21
110.04006480600219,118.53805946838109,6.917100000000005,22
110.13288130867296,118.67271837033331,6.699300000000022,24
111.68214916600846,119.79830406326799,3.459300000000013,29
110.59695457038471,119.52945103216915,5.034400000000005,25
109.99666020623407,118.47469753865153,7.185400000000016,26
110.15941962122452,118.72786904871464,6.734300000000019,29
110.65747978514992,119.59102496318519,5.084700000000026,23
110.03817439463457,118.55135235656051,7.23660000000001,26
110.20245682785752,118.80567435361445,6.7856000000000165,26
110.70278738078196,119.67111152037977,5.133900000000012,25
110.081987245474,118.62917739152908,7.288900000000013,26
110.23753979452887,118.89105956722052,6.837600000000008,23
110.7195784134092,119.77381941303612,5.178200000000004,22
110.12893092131708,118.705970316194,7.340900000000005,26
110.28012482670601,118.98664133623241,6.8887,24
110.75010490010028,119.88577067106962,5.224400000000003,23
110.367819635896,119.17008685972542,6.689400000000006,20
110.31127306306736,119.07414995785805,6.940400000000012,23
110.33697920921259,119.13150296453388,6.976100000000002,22
110.34862642909866,119.16181641444565,6.994,24
110.36271361564285,119.18774494249375,7.010700000000013,23
110.83839315921068,120.04588459804656,5.320000000000022,25
112.02043926843908,120.41281157545744,3.4690000000000225,25
111.03108242631424,120.49548504315315,4.57680000000002,23
110.85075949400198,120.07843983918428,5.3370000000000175,24
111.9880979437148,120.49425824265928,3.4653000000000134,26
110.40012350154578,119.2731893453747,7.063500000000005,24
110.35535285365768,119.17199324257672,7.317000000000008,20
110.43327518983278,119.34296096581967,7.098300000000022,24
111.09634318761528,120.61499031446873,4.6376000000000195,23
110.9049069394823,120.2076681526378,5.399000000000001,24
111.11112122586927,120.64427165873349,4.6533000000000015,23
110.92367622884922,120.23260402958842,5.415700000000014,24
110.47536718216722,119.42741271760315,7.1521000000000186,24
110.50431719399056,119.47928950097412,7.1857000000000255,23
110.53631324879824,119.53346726018937,7.221300000000013,24
110.55111955339089,119.56163757387549,7.239300000000013,24
110.56207591237036,119.58859821036457,7.255400000000009,24
111.02713510231115,120.4675909448415,5.542200000000008,23
110.59645541151986,119.64061310049145,7.290900000000023,24
111.0566911798669,120.52615363150835,5.575000000000017,25
111.09374931966886,120.59491287730634,5.606999999999998,24
111.10531174973585,120.62855941802263,5.6233,24
111.1520575697068,120.71312955394389,5.671800000000019,24
111.17684675450435,120.77601797878742,5.703600000000023,23
111.42804818053264,121.2137658232823,4.962600000000009,21
114.65568429173435,119.7016211207956,4.304300000000012,27
114.66511761187576,119.7274312749505,4.3119000000000085,29
114.75726829841732,119.91877244878559,4.631900000000002,21
114.77442666387651,120.0070369793102,4.645200000000017,61
114.98473551985808,120.34368748776615,4.264800000000008,45
115.01760453474708,120.42456942517309,4.286700000000025,40
115.12151543900835,120.64177994988859,4.0792000000000135,28
115.13241525297052,120.67096265312284,4.0859000000000085,28
115.0884203335736,120.569786246866,4.327800000000025,28
115.15740222972818,120.72607389371841,4.100600000000013,28
115.18075313908048,120.78447876032442,4.114699999999999,26
115.19489682512358,120.80818524025379,4.1226000000000065,26
115.2107331015868,120.82637603674084,4.13160000000002,36
115.22800761356484,120.84905041009188,4.141300000000001,34
115.24040218535808,120.88049463089556,4.148300000000007,36
115.25049809552729,120.9107686309144,4.1541,36
115.286921854713,120.97395303100348,4.171000000000022,35
115.37193784804548,121.14065427798779,4.217500000000001,35
115.39928000548387,121.19471368100494,4.232100000000003,35
115.3060993638355,121.01335202716291,4.722100000000012,21
115.44295146106742,121.27809389866889,4.255200000000002,33
115.4385928066913,121.29688273835929,4.796500000000009,21
115.45666810683906,121.37961185909808,4.809200000000004,28
115.48877715552227,121.42934552952649,4.826400000000007,26
115.54121932713316,121.53407206106932,4.8522000000000105,28
115.44448705622926,121.30926189757885,5.333500000000015,20
115.58541206363589,121.62747127097099,4.876600000000026,28
115.48205074190628,121.41916869860141,5.360300000000024,20
115.6342869061045,121.71987783629449,4.9028000000000125,26
115.52704738255123,121.51147660799325,5.387900000000003,20
115.68083482421936,121.81222520954908,4.927500000000009,28
115.58342428144532,121.61407973524186,5.417300000000012,20
115.73133004235571,121.93246668484062,4.951400000000007,28
115.62822308694011,121.71416484843941,5.444800000000014,21
115.79625155683607,122.06530435476452,4.985100000000017,28
115.68990073353052,121.8524787398055,5.482600000000019,21
115.70304267993194,121.88505372218788,5.4909000000000106,21
115.71908935764804,121.925484825857,5.501000000000005,21
115.73536212916952,121.9570277007297,5.510200000000026,22
